4.877700042724609375e+01,4.351599884033203125e+01,4.224499893188476562e+01,4.225299835205078125e+01,4.886700057983398438e+01,4.227299880981445312e+01,4.229700088500976562e+01,4.229100036621093750e+01,4.231499862670898438e+01,4.232699966430664062e+01,4.234899902343750000e+01,4.235499954223632812e+01,4.238000106811523438e+01,4.244100189208984375e+01,4.383100128173828125e+01,3.089500045776367188e+01,3.697200012207031250e+01,3.626300048828125000e+01,3.637200164794921875e+01,3.676800155639648438e+01,3.691899871826171875e+01,3.701599884033203125e+01,3.131699943542480469e+01,3.002899932861328125e+01,2.868199920654296875e+01,2.898900032043457031e+01,2.918300056457519531e+01,3.194599914550781250e+01,3.328900146484375000e+01,3.331299972534179688e+01,3.336800003051757812e+01,3.865200042724609375e+01,3.877500152587890625e+01,3.901599884033203125e+01,3.460200119018554688e+01,4.384999847412109375e+01,3.206800079345703125e+01,3.203400039672851562e+01,3.204000091552734375e+01,3.208100128173828125e+01,3.211399841308593750e+01,3.350999832153320312e+01,3.349399948120117188e+01,3.430099868774414062e+01,3.213700103759765625e+01,3.215700149536132812e+01,3.221400070190429688e+01,4.427799987792968750e+01,3.276200103759765625e+01,3.515499877929687500e+01,3.838600158691406250e+01,3.974599838256835938e+01,4.262300109863281250e+01,4.283100128173828125e+01,4.341199874877929688e+01,4.378099822998046875e+01,4.413700103759765625e+01,4.440999984741210938e+01,4.456900024414062500e+01,3.649599838256835938e+01,3.672000122070312500e+01,3.476300048828125000e+01,3.607300186157226562e+01,3.608599853515625000e+01,3.592100143432617188e+01,3.620100021362304688e+01,3.665800094604492188e+01,5.046599960327148438e+01,4.429100036621093750e+01,4.034899902343750000e+01,3.565800094604492188e+01,4.646200180053710938e+01,4.832899856567382812e+01,4.869300079345703125e+01,4.552500152587890625e+01,4.684099960327148438e+01,4.858599853515625000e+01,4.800799942016601562e+01,4.404600143432617188e+01,4.032899856567382812e+01,3.993999862670898438e+01,4.004600143432617188e+01,4.002799987792968750e+01,3.873600006103515625e+01,4.831499862670898438e+01,4.909000015258789062e+01,4.906000137329101562e+01,5.294300079345703125e+01,5.420399856567382812e+01,5.200400161743164062e+01,5.533399963378906250e+01,5.502899932861328125e+01,5.031100082397460938e+01,3.825500106811523438e+01,3.767499923706054688e+01,3.751100158691406250e+01,3.739400100708007812e+01,3.807500076293945312e+01,3.824800109863281250e+01,3.824300003051757812e+01,4.358200073242187500e+01,5.084999847412109375e+01,5.044800186157226562e+01,1.036210021972656250e+02,1.037829971313476562e+02,1.069329986572265625e+02,1.068450012207031250e+02,1.040230026245117188e+02,3.665499877929687500e+01,3.772200012207031250e+01,3.690599822998046875e+01,3.829899978637695312e+01,3.736800003051757812e+01,3.727999877929687500e+01,3.769599914550781250e+01,4.982600021362304688e+01,5.165800094604492188e+01,5.152799987792968750e+01,4.607099914550781250e+01
4.377399826049804688e+01,4.349200057983398438e+01,4.231999969482421875e+01,4.232500076293945312e+01,4.232500076293945312e+01,4.229299926757812500e+01,4.225899887084960938e+01,4.223799896240234375e+01,4.884500122070312500e+01,4.225199890136718750e+01,4.228799819946289062e+01,4.228799819946289062e+01,4.234799957275390625e+01,4.244699859619140625e+01,4.379299926757812500e+01,2.893300056457519531e+01,3.689099884033203125e+01,3.634500122070312500e+01,3.672900009155273438e+01,3.672999954223632812e+01,3.695100021362304688e+01,3.584899902343750000e+01,3.345100021362304688e+01,3.002799987792968750e+01,2.933099937438964844e+01,2.947599983215332031e+01,2.932799911499023438e+01,3.063999938964843750e+01,3.101000022888183594e+01,3.182799911499023438e+01,3.172299957275390625e+01,3.204199981689453125e+01,3.207099914550781250e+01,3.914099884033203125e+01,3.992699813842773438e+01,4.375799942016601562e+01,3.218399810791015625e+01,4.019200134277343750e+01,4.007199859619140625e+01,3.221900177001953125e+01,3.218000030517578125e+01,3.344499969482421875e+01,3.340100097656250000e+01,3.211800003051757812e+01,3.214500045776367188e+01,3.216600036621093750e+01,3.218399810791015625e+01,3.220600128173828125e+01,3.224399948120117188e+01,3.227600097656250000e+01,3.239500045776367188e+01,3.255899810791015625e+01,3.272200012207031250e+01,3.298300170898437500e+01,3.884500122070312500e+01,3.952799987792968750e+01,4.255699920654296875e+01,4.306600189208984375e+01,4.278900146484375000e+01,4.023600006103515625e+01,3.747299957275390625e+01,3.450600051879882812e+01,3.608499908447265625e+01,3.605699920654296875e+01,3.620000076293945312e+01,3.591500091552734375e+01,3.638700103759765625e+01,4.310400009155273438e+01,4.450999832153320312e+01,4.393299865722656250e+01,3.534700012207031250e+01,3.588100051879882812e+01,4.838100051879882812e+01,4.871400070190429688e+01,3.938800048828125000e+01,4.709000015258789062e+01,4.868600082397460938e+01,4.787200164794921875e+01,4.427500152587890625e+01,3.711000061035156250e+01,3.691799926757812500e+01,3.695100021362304688e+01,3.700299835205078125e+01,3.702000045776367188e+01,3.794400024414062500e+01,4.071799850463867188e+01,3.848799896240234375e+01,3.894900131225585938e+01,4.688199996948242188e+01,5.171900177001953125e+01,5.422200012207031250e+01,5.473799896240234375e+01,5.209600067138671875e+01,4.743999862670898438e+01,4.264400100708007812e+01,3.730599975585937500e+01,3.714799880981445312e+01,3.755599975585937500e+01,3.782899856567382812e+01,4.045399856567382812e+01,4.999800109863281250e+01,5.390299987792968750e+01,5.281299972534179688e+01,1.035869979858398438e+02,1.039120025634765625e+02,1.070989990234375000e+02,1.071389999389648438e+02,1.040849990844726562e+02,3.660699844360351562e+01,3.773199844360351562e+01,3.756399917602539062e+01,3.832099914550781250e+01,3.693700027465820312e+01,3.704399871826171875e+01,3.715599822998046875e+01,4.529299926757812500e+01,5.261000061035156250e+01,5.130599975585937500e+01,4.483300018310546875e+01
4.906800079345703125e+01,4.368899917602539062e+01,4.240200042724609375e+01,4.239500045776367188e+01,4.239599990844726562e+01,4.235200119018554688e+01,4.231999969482421875e+01,4.230500030517578125e+01,4.227799987792968750e+01,4.226900100708007812e+01,4.226499938964843750e+01,4.880599975585937500e+01,4.235100173950195312e+01,4.952700042724609375e+01,4.949000167846679688e+01,3.589599990844726562e+01,3.854800033569335938e+01,3.970100021362304688e+01,3.915200042724609375e+01,3.675699996948242188e+01,3.687900161743164062e+01,3.319100189208984375e+01,3.346799850463867188e+01,2.857299995422363281e+01,2.891500091552734375e+01,2.895800018310546875e+01,2.912199974060058594e+01,3.110499954223632812e+01,3.144499969482421875e+01,3.196500015258789062e+01,3.211500167846679688e+01,3.171299934387207031e+01,3.109499931335449219e+01,3.310800170898437500e+01,3.338100051879882812e+01,3.275400161743164062e+01,3.213399887084960938e+01,3.221500015258789062e+01,3.979299926757812500e+01,4.452299880981445312e+01,4.429600143432617188e+01,4.458399963378906250e+01,4.449399948120117188e+01,4.240900039672851562e+01,3.906100082397460938e+01,3.226399993896484375e+01,3.223500061035156250e+01,3.222800064086914062e+01,3.355300140380859375e+01,3.352700042724609375e+01,3.231700134277343750e+01,3.240200042724609375e+01,3.251100158691406250e+01,3.265800094604492188e+01,3.282099914550781250e+01,3.434400177001953125e+01,3.434899902343750000e+01,4.550799942016601562e+01,4.243500137329101562e+01,4.035800170898437500e+01,3.402899932861328125e+01,3.423799896240234375e+01,3.426599884033203125e+01,3.759700012207031250e+01,4.192200088500976562e+01,4.024800109863281250e+01,3.484299850463867188e+01,4.229100036621093750e+01,4.445100021362304688e+01,3.520000076293945312e+01,3.499900054931640625e+01,4.611399841308593750e+01,4.734000015258789062e+01,4.763100051879882812e+01,3.871300125122070312e+01,4.384799957275390625e+01,4.699800109863281250e+01,4.601200103759765625e+01,3.722999954223632812e+01,3.625299835205078125e+01,3.632300186157226562e+01,3.641500091552734375e+01,3.596300125122070312e+01,3.600299835205078125e+01,3.604600143432617188e+01,3.625899887084960938e+01,3.668000030517578125e+01,3.790000152587890625e+01,3.903200149536132812e+01,4.830300140380859375e+01,6.373099899291992188e+01,6.380500030517578125e+01,5.177600097656250000e+01,4.081299972534179688e+01,4.137300109863281250e+01,3.788700103759765625e+01,3.689699935913085938e+01,3.710400009155273438e+01,3.739699935913085938e+01,3.742200088500976562e+01,4.619900131225585938e+01,5.053799819946289062e+01,4.978400039672851562e+01,1.035979995727539062e+02,1.035670013427734375e+02,1.111110000610351562e+02,1.078000030517578125e+02,1.035230026245117188e+02,3.817599868774414062e+01,3.717300033569335938e+01,3.625500106811523438e+01,3.774399948120117188e+01,3.701900100708007812e+01,3.678499984741210938e+01,3.690800094604492188e+01,4.545500183105468750e+01,5.038100051879882812e+01,5.051200103759765625e+01,4.549499893188476562e+01
4.901300048828125000e+01,4.384700012207031250e+01,4.387599945068359375e+01,4.915999984741210938e+01,4.381600189208984375e+01,4.243199920654296875e+01,4.240100097656250000e+01,4.237400054931640625e+01,4.235499954223632812e+01,4.233900070190429688e+01,4.233599853515625000e+01,4.233000183105468750e+01,4.237599945068359375e+01,4.952600097656250000e+01,4.950000000000000000e+01,3.691500091552734375e+01,3.956299972534179688e+01,3.974800109863281250e+01,3.856800079345703125e+01,3.687300109863281250e+01,3.680500030517578125e+01,3.343500137329101562e+01,3.352500152587890625e+01,3.354999923706054688e+01,3.366400146484375000e+01,3.375299835205078125e+01,3.087700080871582031e+01,3.407400131225585938e+01,3.388999938964843750e+01,3.383900070190429688e+01,3.380099868774414062e+01,3.362099838256835938e+01,3.286100006103515625e+01,3.301900100708007812e+01,3.174099922180175781e+01,3.191200065612792969e+01,3.203300094604492188e+01,3.219699859619140625e+01,3.400199890136718750e+01,4.433499908447265625e+01,4.307500076293945312e+01,4.540800094604492188e+01,4.517900085449218750e+01,4.513800048828125000e+01,4.484000015258789062e+01,4.481000137329101562e+01,4.424200057983398438e+01,3.238000106811523438e+01,3.237799835205078125e+01,3.237400054931640625e+01,3.236700057983398438e+01,3.235100173950195312e+01,3.238299942016601562e+01,3.254600143432617188e+01,3.267399978637695312e+01,3.282099914550781250e+01,3.298899841308593750e+01,3.316799926757812500e+01,3.336100006103515625e+01,3.355199813842773438e+01,3.379600143432617188e+01,3.392699813842773438e+01,3.394499969482421875e+01,3.963700103759765625e+01,4.132600021362304688e+01,4.027099990844726562e+01,3.450600051879882812e+01,3.442599868774414062e+01,3.530599975585937500e+01,3.517100143432617188e+01,3.506900024414062500e+01,4.614099884033203125e+01,4.738700103759765625e+01,4.762900161743164062e+01,3.965700149536132812e+01,3.505199813842773438e+01,3.636500167846679688e+01,3.707199859619140625e+01,3.688399887084960938e+01,3.587599945068359375e+01,3.643600082397460938e+01,3.625000000000000000e+01,3.628300094604492188e+01,3.640800094604492188e+01,3.790900039672851562e+01,3.570100021362304688e+01,3.884299850463867188e+01,3.875099945068359375e+01,3.933200073242187500e+01,5.004199981689453125e+01,5.075699996948242188e+01,5.200600051879882812e+01,5.376699829101562500e+01,5.226200103759765625e+01,4.974100112915039062e+01,3.834799957275390625e+01,3.738899993896484375e+01,3.665900039672851562e+01,3.687500000000000000e+01,3.688899993896484375e+01,4.281600189208984375e+01,4.306399917602539062e+01,3.778599929809570312e+01,1.036279983520507812e+02,1.036849975585937500e+02,1.070729980468750000e+02,1.070680007934570312e+02,1.035410003662109375e+02,3.824700164794921875e+01,3.715100097656250000e+01,3.618000030517578125e+01,3.626499938964843750e+01,3.646900177001953125e+01,3.648300170898437500e+01,3.661000061035156250e+01,3.676399993896484375e+01,4.685100173950195312e+01,4.665599822998046875e+01,3.730699920654296875e+01
4.218299865722656250e+01,4.195800018310546875e+01,4.172200012207031250e+01,4.149900054931640625e+01,4.383300018310546875e+01,4.382199859619140625e+01,4.383800125122070312e+01,4.907500076293945312e+01,4.390100097656250000e+01,4.244499969482421875e+01,4.241199874877929688e+01,4.238700103759765625e+01,4.246099853515625000e+01,4.378499984741210938e+01,2.849799919128417969e+01,3.695100021362304688e+01,3.959400177001953125e+01,3.980099868774414062e+01,3.679899978637695312e+01,3.693299865722656250e+01,3.598500061035156250e+01,3.352999877929687500e+01,3.340599822998046875e+01,3.355799865722656250e+01,3.363000106811523438e+01,3.391500091552734375e+01,3.405599975585937500e+01,3.410100173950195312e+01,3.394699859619140625e+01,3.286500167846679688e+01,3.288800048828125000e+01,3.357099914550781250e+01,3.387900161743164062e+01,3.390000152587890625e+01,3.389699935913085938e+01,3.429800033569335938e+01,3.423400115966796875e+01,3.222900009155273438e+01,3.386399841308593750e+01,3.499000167846679688e+01,3.695399856567382812e+01,4.064500045776367188e+01,4.348899841308593750e+01,4.506700134277343750e+01,4.482400131225585938e+01,4.491899871826171875e+01,4.411100006103515625e+01,4.255799865722656250e+01,3.429800033569335938e+01,3.435699844360351562e+01,3.984500122070312500e+01,4.363299942016601562e+01,3.257300186157226562e+01,3.260499954223632812e+01,3.261600112915039062e+01,3.267399978637695312e+01,3.276800155639648438e+01,3.291600036621093750e+01,3.443299865722656250e+01,3.329199981689453125e+01,3.352000045776367188e+01,3.362699890136718750e+01,3.362200164794921875e+01,4.391799926757812500e+01,4.384099960327148438e+01,3.428200149536132812e+01,3.419499969482421875e+01,3.681100082397460938e+01,3.498400115966796875e+01,3.455599975585937500e+01,3.474900054931640625e+01,3.992800140380859375e+01,4.748199844360351562e+01,4.765900039672851562e+01,3.571500015258789062e+01,3.471400070190429688e+01,4.590200042724609375e+01,4.458900070190429688e+01,3.671900177001953125e+01,3.582799911499023438e+01,3.548300170898437500e+01,3.648400115966796875e+01,3.605500030517578125e+01,3.536600112915039062e+01,3.541099929809570312e+01,4.143000030517578125e+01,4.415900039672851562e+01,4.043199920654296875e+01,3.843799972534179688e+01,3.924499893188476562e+01,4.630500030517578125e+01,5.269699859619140625e+01,5.360699844360351562e+01,5.373099899291992188e+01,5.083100128173828125e+01,3.848199844360351562e+01,4.211199951171875000e+01,4.665800094604492188e+01,4.205899810791015625e+01,3.640000152587890625e+01,3.633000183105468750e+01,4.014199829101562500e+01,4.005400085449218750e+01,1.035950012207031250e+02,1.035520019531250000e+02,1.039390029907226562e+02,1.020680007934570312e+02,1.035350036621093750e+02,3.837500000000000000e+01,3.713100051879882812e+01,3.635900115966796875e+01,3.625799942016601562e+01,3.628699874877929688e+01,3.622000122070312500e+01,3.604899978637695312e+01,3.630400085449218750e+01,4.136600112915039062e+01,3.641600036621093750e+01,3.655799865722656250e+01
4.204800033569335938e+01,4.180899810791015625e+01,4.157699966430664062e+01,4.136399841308593750e+01,4.114500045776367188e+01,4.090000152587890625e+01,4.066999816894531250e+01,4.044100189208984375e+01,4.373600006103515625e+01,4.384400177001953125e+01,4.385400009155273438e+01,4.911999893188476562e+01,4.382500076293945312e+01,4.377899932861328125e+01,2.836800003051757812e+01,3.689500045776367188e+01,3.588499832153320312e+01,3.655099868774414062e+01,3.674700164794921875e+01,3.693299865722656250e+01,3.290499877929687500e+01,3.348099899291992188e+01,3.226800155639648438e+01,3.238800048828125000e+01,3.249700164794921875e+01,3.390499877929687500e+01,3.405799865722656250e+01,3.397600173950195312e+01,3.318600082397460938e+01,3.317200088500976562e+01,3.295000076293945312e+01,3.307500076293945312e+01,3.306399917602539062e+01,3.315299987792968750e+01,3.315000152587890625e+01,3.418099975585937500e+01,3.425000000000000000e+01,3.458200073242187500e+01,3.463800048828125000e+01,3.462799835205078125e+01,3.588899993896484375e+01,3.653599929809570312e+01,3.510200119018554688e+01,3.634099960327148438e+01,3.654600143432617188e+01,3.488499832153320312e+01,4.252399826049804688e+01,3.790999984741210938e+01,3.392800140380859375e+01,3.545600128173828125e+01,4.163600158691406250e+01,4.572600173950195312e+01,3.274200057983398438e+01,3.282899856567382812e+01,3.287300109863281250e+01,3.291899871826171875e+01,4.495500183105468750e+01,4.502899932861328125e+01,3.281399917602539062e+01,3.300199890136718750e+01,3.322100067138671875e+01,3.329100036621093750e+01,3.654100036621093750e+01,4.159600067138671875e+01,4.212300109863281250e+01,3.515999984741210938e+01,4.201900100708007812e+01,3.710900115966796875e+01,3.715800094604492188e+01,3.665100097656250000e+01,3.430300140380859375e+01,3.500299835205078125e+01,4.641500091552734375e+01,4.656399917602539062e+01,3.673400115966796875e+01,4.423799896240234375e+01,4.695100021362304688e+01,4.651599884033203125e+01,4.261100006103515625e+01,3.760699844360351562e+01,3.579600143432617188e+01,3.556000137329101562e+01,3.614899826049804688e+01,3.526100158691406250e+01,3.530500030517578125e+01,3.532699966430664062e+01,4.109999847412109375e+01,3.730400085449218750e+01,3.803900146484375000e+01,3.903300094604492188e+01,3.927799987792968750e+01,4.912599945068359375e+01,5.044499969482421875e+01,5.091999816894531250e+01,4.780099868774414062e+01,3.867499923706054688e+01,5.170800018310546875e+01,5.436600112915039062e+01,4.860100173950195312e+01,3.586800003051757812e+01,3.584799957275390625e+01,3.570299911499023438e+01,3.998500061035156250e+01,1.035719985961914062e+02,1.035889968872070312e+02,1.039860000610351562e+02,1.039729995727539062e+02,1.036050033569335938e+02,3.711500167846679688e+01,3.628799819946289062e+01,3.639799880981445312e+01,3.640700149536132812e+01,3.639099884033203125e+01,3.640599822998046875e+01,3.593000030517578125e+01,3.602299880981445312e+01,3.612099838256835938e+01,3.775600051879882812e+01,3.765299987792968750e+01
4.318799972534179688e+01,4.300999832153320312e+01,4.783200073242187500e+01,4.782600021362304688e+01,4.101300048828125000e+01,4.078300094604492188e+01,4.054600143432617188e+01,4.031700134277343750e+01,4.008800125122070312e+01,3.984500122070312500e+01,3.963299942016601562e+01,3.952600097656250000e+01,4.081999969482421875e+01,4.347000122070312500e+01,3.695800018310546875e+01,3.692300033569335938e+01,3.591899871826171875e+01,3.683800125122070312e+01,3.673300170898437500e+01,3.693500137329101562e+01,3.303799819946289062e+01,3.345999908447265625e+01,3.215900039672851562e+01,3.231999969482421875e+01,3.241600036621093750e+01,2.863999938964843750e+01,2.876799964904785156e+01,3.306700134277343750e+01,3.307500076293945312e+01,2.903100013732910156e+01,2.924300003051757812e+01,3.310699844360351562e+01,3.318199920654296875e+01,3.316500091552734375e+01,3.325999832153320312e+01,3.322800064086914062e+01,3.335900115966796875e+01,3.335699844360351562e+01,3.345000076293945312e+01,3.346699905395507812e+01,3.504999923706054688e+01,3.540599822998046875e+01,3.517499923706054688e+01,3.634999847412109375e+01,3.633000183105468750e+01,3.491999816894531250e+01,3.538999938964843750e+01,3.488499832153320312e+01,3.359799957275390625e+01,3.302399826049804688e+01,4.027999877929687500e+01,3.836500167846679688e+01,3.286700057983398438e+01,3.287400054931640625e+01,3.290800094604492188e+01,3.303400039672851562e+01,4.421400070190429688e+01,3.598799896240234375e+01,3.580199813842773438e+01,3.384099960327148438e+01,3.290000152587890625e+01,3.294800186157226562e+01,3.401599884033203125e+01,3.479100036621093750e+01,3.457500076293945312e+01,3.496500015258789062e+01,4.489899826049804688e+01,4.721099853515625000e+01,4.650099945068359375e+01,3.592800140380859375e+01,3.411000061035156250e+01,4.520999908447265625e+01,4.648500061035156250e+01,4.655699920654296875e+01,3.903699874877929688e+01,4.486399841308593750e+01,4.709400177001953125e+01,4.739799880981445312e+01,4.126100158691406250e+01,3.655300140380859375e+01,4.211899948120117188e+01,3.635300064086914062e+01,3.572999954223632812e+01,3.524200057983398438e+01,3.498899841308593750e+01,3.533800125122070312e+01,3.634600067138671875e+01,3.717800140380859375e+01,3.754499816894531250e+01,3.846599960327148438e+01,3.906499862670898438e+01,3.915000152587890625e+01,3.903599929809570312e+01,5.197299957275390625e+01,5.293799972534179688e+01,4.867300033569335938e+01,5.200600051879882812e+01,5.418399810791015625e+01,4.780199813842773438e+01,3.706200027465820312e+01,3.550799942016601562e+01,4.703400039672851562e+01,4.808100128173828125e+01,4.672299957275390625e+01,3.726300048828125000e+01,3.747200012207031250e+01,3.769100189208984375e+01,3.764799880981445312e+01,3.739899826049804688e+01,3.562799835205078125e+01,3.566999816894531250e+01,3.575400161743164062e+01,4.077199935913085938e+01,3.590999984741210938e+01,3.584600067138671875e+01,3.590999984741210938e+01,3.600199890136718750e+01,3.604399871826171875e+01,4.346900177001953125e+01
5.317900085449218750e+01,2.904800033569335938e+01,4.234999847412109375e+01,4.245000076293945312e+01,4.226100158691406250e+01,4.199000167846679688e+01,4.166299819946289062e+01,4.666099929809570312e+01,3.994100189208984375e+01,3.972600173950195312e+01,3.947800064086914062e+01,3.941999816894531250e+01,4.079600143432617188e+01,3.959600067138671875e+01,3.675899887084960938e+01,3.767800140380859375e+01,3.717499923706054688e+01,3.681200027465820312e+01,3.692599868774414062e+01,3.690299987792968750e+01,3.324900054931640625e+01,3.348699951171875000e+01,3.186400032043457031e+01,3.186599922180175781e+01,3.156399917602539062e+01,2.851000022888183594e+01,2.864699935913085938e+01,2.876000022888183594e+01,2.886599922180175781e+01,2.893799972534179688e+01,3.299200057983398438e+01,3.309700012207031250e+01,3.126899909973144531e+01,3.218799972534179688e+01,3.226399993896484375e+01,3.221099853515625000e+01,3.340100097656250000e+01,3.339699935913085938e+01,3.464799880981445312e+01,3.354999923706054688e+01,3.354999923706054688e+01,3.366299819946289062e+01,3.362799835205078125e+01,3.373300170898437500e+01,3.448600006103515625e+01,3.473500061035156250e+01,3.473699951171875000e+01,3.490800094604492188e+01,3.494699859619140625e+01,3.492200088500976562e+01,3.614799880981445312e+01,3.592800140380859375e+01,3.500600051879882812e+01,3.315200042724609375e+01,3.316799926757812500e+01,3.323899841308593750e+01,3.332400131225585938e+01,3.327000045776367188e+01,3.709999847412109375e+01,3.542499923706054688e+01,3.258000183105468750e+01,3.260800170898437500e+01,3.631200027465820312e+01,3.717900085449218750e+01,3.337599945068359375e+01,3.446400070190429688e+01,4.533800125122070312e+01,4.686000061035156250e+01,4.638999938964843750e+01,3.409000015258789062e+01,3.369900131225585938e+01,4.429499816894531250e+01,4.653900146484375000e+01,4.656600189208984375e+01,3.886999893188476562e+01,4.389599990844726562e+01,4.449100112915039062e+01,4.557099914550781250e+01,4.859199905395507812e+01,4.892800140380859375e+01,5.121799850463867188e+01,5.096699905395507812e+01,4.295899963378906250e+01,3.527299880981445312e+01,3.470700073242187500e+01,4.370999908447265625e+01,4.588600158691406250e+01,3.703900146484375000e+01,3.719400024414062500e+01,3.753300094604492188e+01,3.869900131225585938e+01,4.392900085449218750e+01,4.447800064086914062e+01,5.108200073242187500e+01,5.244100189208984375e+01,4.570299911499023438e+01,5.099599838256835938e+01,5.042800140380859375e+01,3.634899902343750000e+01,3.585400009155273438e+01,3.538899993896484375e+01,4.667300033569335938e+01,4.784199905395507812e+01,4.666299819946289062e+01,3.732500076293945312e+01,3.640499877929687500e+01,3.517599868774414062e+01,3.523199844360351562e+01,3.537200164794921875e+01,4.050299835205078125e+01,3.668799972534179688e+01,4.265599822998046875e+01,4.677199935913085938e+01,4.619499969482421875e+01,4.585599899291992188e+01,4.512799835205078125e+01,4.717699813842773438e+01,4.685800170898437500e+01,3.705099868774414062e+01
5.322399902343750000e+01,4.161299896240234375e+01,4.193899917602539062e+01,4.149300003051757812e+01,4.049399948120117188e+01,2.952599906921386719e+01,3.900600051879882812e+01,4.131399917602539062e+01,4.112799835205078125e+01,4.089400100708007812e+01,4.598799896240234375e+01,4.665000152587890625e+01,4.083300018310546875e+01,3.647600173950195312e+01,3.814099884033203125e+01,3.869599914550781250e+01,3.829899978637695312e+01,3.679399871826171875e+01,3.691799926757812500e+01,3.598899841308593750e+01,3.346699905395507812e+01,3.350500106811523438e+01,3.192200088500976562e+01,3.198900032043457031e+01,3.193799972534179688e+01,2.837500000000000000e+01,2.853300094604492188e+01,2.868600082397460938e+01,2.879599952697753906e+01,2.887299919128417969e+01,2.894799995422363281e+01,2.904000091552734375e+01,2.914399909973144531e+01,3.207699966430664062e+01,3.292900085449218750e+01,3.329600143432617188e+01,3.330599975585937500e+01,3.247800064086914062e+01,3.259199905395507812e+01,3.260300064086914062e+01,3.358900070190429688e+01,3.369800186157226562e+01,3.413199996948242188e+01,3.419300079345703125e+01,3.434600067138671875e+01,3.395100021362304688e+01,3.393899917602539062e+01,3.395100021362304688e+01,3.400600051879882812e+01,3.515000152587890625e+01,3.567499923706054688e+01,3.573400115966796875e+01,3.518199920654296875e+01,3.526300048828125000e+01,3.458100128173828125e+01,3.322100067138671875e+01,3.331000137329101562e+01,3.418799972534179688e+01,3.414199829101562500e+01,3.320399856567382812e+01,3.223699951171875000e+01,3.225799942016601562e+01,3.573600006103515625e+01,3.597900009155273438e+01,3.432199859619140625e+01,3.441500091552734375e+01,4.136100006103515625e+01,4.235400009155273438e+01,4.172900009155273438e+01,3.385900115966796875e+01,3.241299819946289062e+01,3.307400131225585938e+01,4.562799835205078125e+01,4.564199829101562500e+01,4.442699813842773438e+01,4.441299819946289062e+01,3.679399871826171875e+01,4.618700027465820312e+01,4.778699874877929688e+01,4.841999816894531250e+01,5.116899871826171875e+01,5.095399856567382812e+01,4.594100189208984375e+01,4.017900085449218750e+01,3.448099899291992188e+01,4.592900085449218750e+01,4.576900100708007812e+01,4.158599853515625000e+01,3.701900100708007812e+01,4.292100143432617188e+01,4.079999923706054688e+01,4.806600189208984375e+01,4.823099899291992188e+01,4.622600173950195312e+01,4.709899902343750000e+01,4.666299819946289062e+01,4.840800094604492188e+01,4.916500091552734375e+01,4.234400177001953125e+01,3.515900039672851562e+01,3.566500091552734375e+01,3.571099853515625000e+01,3.592300033569335938e+01,4.005599975585937500e+01,4.002099990844726562e+01,4.260300064086914062e+01,4.582799911499023438e+01,4.370999908447265625e+01,3.537099838256835938e+01,3.680300140380859375e+01,3.610900115966796875e+01,4.424800109863281250e+01,4.763800048828125000e+01,4.868700027465820312e+01,4.824100112915039062e+01,4.677399826049804688e+01,4.743099975585937500e+01,4.730099868774414062e+01,3.684199905395507812e+01
5.321599960327148438e+01,5.339500045776367188e+01,5.571500015258789062e+01,5.563499832153320312e+01,5.565599822998046875e+01,5.347900009155273438e+01,5.348300170898437500e+01,5.424599838256835938e+01,5.418000030517578125e+01,2.901899909973144531e+01,2.785499954223632812e+01,4.660200119018554688e+01,4.666299819946289062e+01,4.656200027465820312e+01,3.890700149536132812e+01,4.069400024414062500e+01,3.950500106811523438e+01,3.674000167846679688e+01,3.688499832153320312e+01,3.277299880981445312e+01,3.349300003051757812e+01,3.176099967956542969e+01,3.193700027465820312e+01,3.210699844360351562e+01,3.208499908447265625e+01,2.832799911499023438e+01,2.847100067138671875e+01,2.861199951171875000e+01,2.873800086975097656e+01,2.880999946594238281e+01,2.888400077819824219e+01,2.895400047302246094e+01,2.903499984741210938e+01,2.912700080871582031e+01,2.920599937438964844e+01,3.295700073242187500e+01,2.937299919128417969e+01,3.245899963378906250e+01,3.256800079345703125e+01,3.245899963378906250e+01,3.271300125122070312e+01,3.402899932861328125e+01,3.413499832153320312e+01,3.421200180053710938e+01,3.424800109863281250e+01,3.383100128173828125e+01,3.399900054931640625e+01,3.401100158691406250e+01,3.417800140380859375e+01,3.414300155639648438e+01,3.422800064086914062e+01,3.530300140380859375e+01,3.422200012207031250e+01,3.531999969482421875e+01,3.877600097656250000e+01,3.882699966430664062e+01,3.902099990844726562e+01,3.472000122070312500e+01,3.181200027465820312e+01,3.310800170898437500e+01,3.189399909973144531e+01,3.326800155639648438e+01,3.940900039672851562e+01,3.572999954223632812e+01,3.441999816894531250e+01,3.443700027465820312e+01,3.445299911499023438e+01,3.347700119018554688e+01,3.293899917602539062e+01,3.216199874877929688e+01,3.221300125122070312e+01,3.266999816894531250e+01,3.291400146484375000e+01,3.465999984741210938e+01,3.612900161743164062e+01,3.727500152587890625e+01,3.339099884033203125e+01,4.360900115966796875e+01,4.694300079345703125e+01,4.613100051879882812e+01,4.848699951171875000e+01,4.788100051879882812e+01,4.874399948120117188e+01,4.885400009155273438e+01,4.507600021362304688e+01,3.997399902343750000e+01,4.702299880981445312e+01,4.741899871826171875e+01,4.418299865722656250e+01,4.901200103759765625e+01,4.956700134277343750e+01,4.643000030517578125e+01,4.686999893188476562e+01,4.589099884033203125e+01,4.486800003051757812e+01,4.546500015258789062e+01,4.739300155639648438e+01,4.816400146484375000e+01,3.550699996948242188e+01,3.961199951171875000e+01,3.555500030517578125e+01,3.535599899291992188e+01,3.539400100708007812e+01,3.524100112915039062e+01,3.511000061035156250e+01,4.563299942016601562e+01,4.712900161743164062e+01,4.637099838256835938e+01,4.438199996948242188e+01,4.119900131225585938e+01,3.581399917602539062e+01,4.294699859619140625e+01,4.722999954223632812e+01,4.736800003051757812e+01,4.649000167846679688e+01,4.650999832153320312e+01,4.563100051879882812e+01,4.483399963378906250e+01,3.739699935913085938e+01
5.527600097656250000e+01,5.353599929809570312e+01,5.689099884033203125e+01,5.566799926757812500e+01,5.628799819946289062e+01,5.320999908447265625e+01,5.340800094604492188e+01,5.533499908447265625e+01,5.426800155639648438e+01,3.728599929809570312e+01,3.744499969482421875e+01,4.654600143432617188e+01,4.656499862670898438e+01,3.642900085449218750e+01,4.001100158691406250e+01,4.061500167846679688e+01,4.000000000000000000e+01,3.673500061035156250e+01,3.694300079345703125e+01,3.296200180053710938e+01,3.347900009155273438e+01,3.181900024414062500e+01,3.194199943542480469e+01,3.201100158691406250e+01,2.961899948120117188e+01,2.827899932861328125e+01,2.840399932861328125e+01,2.853499984741210938e+01,4.382600021362304688e+01,3.298899841308593750e+01,3.267599868774414062e+01,3.248799896240234375e+01,2.897200012207031250e+01,2.904400062561035156e+01,2.913299942016601562e+01,2.922200012207031250e+01,3.276699829101562500e+01,3.286999893188476562e+01,3.312599945068359375e+01,3.298099899291992188e+01,2.964100074768066406e+01,2.971800041198730469e+01,3.402500152587890625e+01,3.407600021362304688e+01,3.276800155639648438e+01,3.004599952697753906e+01,3.012500000000000000e+01,3.311399841308593750e+01,3.320299911499023438e+01,3.414099884033203125e+01,3.425899887084960938e+01,3.527899932861328125e+01,3.537099838256835938e+01,3.525400161743164062e+01,3.876800155639648438e+01,3.871099853515625000e+01,3.989599990844726562e+01,3.979700088500976562e+01,3.138100051879882812e+01,3.148900032043457031e+01,3.155299949645996094e+01,3.437500000000000000e+01,3.833000183105468750e+01,3.263399887084960938e+01,3.427500152587890625e+01,4.252099990844726562e+01,3.878599929809570312e+01,3.290000152587890625e+01,3.333200073242187500e+01,3.341500091552734375e+01,3.336500167846679688e+01,3.278200149536132812e+01,3.274399948120117188e+01,3.738100051879882812e+01,3.285900115966796875e+01,3.844800186157226562e+01,3.808599853515625000e+01,4.612799835205078125e+01,4.790499877929687500e+01,4.741799926757812500e+01,4.316600036621093750e+01,4.467499923706054688e+01,4.866099929809570312e+01,4.888000106811523438e+01,4.511899948120117188e+01,4.125099945068359375e+01,4.698199844360351562e+01,4.772399902343750000e+01,4.684999847412109375e+01,4.907400131225585938e+01,4.947800064086914062e+01,4.570999908447265625e+01,4.312300109863281250e+01,4.362200164794921875e+01,4.095299911499023438e+01,4.134199905395507812e+01,3.913299942016601562e+01,5.146799850463867188e+01,3.497499847412109375e+01,3.575600051879882812e+01,3.528400039672851562e+01,3.541099929809570312e+01,3.550500106811523438e+01,3.659799957275390625e+01,3.656999969482421875e+01,4.679100036621093750e+01,4.724800109863281250e+01,4.852299880981445312e+01,4.684600067138671875e+01,4.477199935913085938e+01,3.641899871826171875e+01,4.215700149536132812e+01,3.743999862670898438e+01,3.729100036621093750e+01,3.733000183105468750e+01,3.609000015258789062e+01,3.750099945068359375e+01,4.846599960327148438e+01,4.989799880981445312e+01
5.656399917602539062e+01,5.399800109863281250e+01,5.688899993896484375e+01,5.584999847412109375e+01,5.689400100708007812e+01,5.637200164794921875e+01,5.330699920654296875e+01,5.417100143432617188e+01,5.342300033569335938e+01,3.660100173950195312e+01,3.728200149536132812e+01,2.934900093078613281e+01,3.644200134277343750e+01,3.990399932861328125e+01,3.995600128173828125e+01,3.998699951171875000e+01,3.998099899291992188e+01,3.671799850463867188e+01,3.689199829101562500e+01,3.316299819946289062e+01,3.353699874877929688e+01,3.062599945068359375e+01,3.193199920654296875e+01,3.202399826049804688e+01,2.942399978637695312e+01,3.230500030517578125e+01,2.975300025939941406e+01,2.880800056457519531e+01,4.439099884033203125e+01,4.376100158691406250e+01,3.274300003051757812e+01,3.271699905395507812e+01,2.960000038146972656e+01,2.964100074768066406e+01,2.905699920654296875e+01,2.914999961853027344e+01,3.077000045776367188e+01,3.276399993896484375e+01,3.303300094604492188e+01,3.292399978637695312e+01,3.299000167846679688e+01,3.316099929809570312e+01,3.325799942016601562e+01,3.278799819946289062e+01,2.988699913024902344e+01,2.996800041198730469e+01,3.005599975585937500e+01,3.317699813842773438e+01,3.315000152587890625e+01,3.319200134277343750e+01,3.334000015258789062e+01,3.334099960327148438e+01,3.338600158691406250e+01,3.285200119018554688e+01,3.282099914550781250e+01,3.891799926757812500e+01,3.902000045776367188e+01,3.875299835205078125e+01,3.109499931335449219e+01,3.123100090026855469e+01,3.246200180053710938e+01,3.645000076293945312e+01,3.786600112915039062e+01,3.595100021362304688e+01,3.362200164794921875e+01,3.357400131225585938e+01,4.380599975585937500e+01,4.377999877929687500e+01,3.331999969482421875e+01,3.347800064086914062e+01,4.364599990844726562e+01,3.203900146484375000e+01,3.828699874877929688e+01,4.348099899291992188e+01,4.346799850463867188e+01,3.334000015258789062e+01,3.307899856567382812e+01,4.589500045776367188e+01,4.772900009155273438e+01,4.746699905395507812e+01,4.157799911499023438e+01,4.222200012207031250e+01,4.681800079345703125e+01,4.824000167846679688e+01,4.530799865722656250e+01,3.342300033569335938e+01,4.476900100708007812e+01,4.718999862670898438e+01,4.820899963378906250e+01,4.390599822998046875e+01,4.624300003051757812e+01,3.971799850463867188e+01,4.116699981689453125e+01,4.818199920654296875e+01,4.500799942016601562e+01,4.174599838256835938e+01,4.081999969482421875e+01,3.698500061035156250e+01,3.613100051879882812e+01,3.672100067138671875e+01,3.633800125122070312e+01,3.610599899291992188e+01,3.565599822998046875e+01,3.559999847412109375e+01,3.660699844360351562e+01,4.248799896240234375e+01,4.464899826049804688e+01,4.654700088500976562e+01,4.720199966430664062e+01,4.711899948120117188e+01,4.708399963378906250e+01,5.456299972534179688e+01,4.695299911499023438e+01,4.695299911499023438e+01,4.689400100708007812e+01,3.715000152587890625e+01,3.765599822998046875e+01,4.853599929809570312e+01,5.052899932861328125e+01
5.226300048828125000e+01,5.227500152587890625e+01,5.314500045776367188e+01,5.338499832153320312e+01,5.378499984741210938e+01,5.331800079345703125e+01,5.331200027465820312e+01,5.331299972534179688e+01,5.331100082397460938e+01,4.666999816894531250e+01,2.809300041198730469e+01,2.940800094604492188e+01,2.928700065612792969e+01,4.002600097656250000e+01,3.888000106811523438e+01,4.009000015258789062e+01,3.887799835205078125e+01,3.691400146484375000e+01,3.691099929809570312e+01,3.342399978637695312e+01,3.351699829101562500e+01,2.779000091552734375e+01,3.093400001525878906e+01,2.797800064086914062e+01,2.807999992370605469e+01,3.229299926757812500e+01,2.980200004577636719e+01,2.838599967956542969e+01,3.267800140380859375e+01,3.299100112915039062e+01,3.462500000000000000e+01,3.268899917602539062e+01,2.880800056457519531e+01,2.889699935913085938e+01,2.898299980163574219e+01,2.907399940490722656e+01,2.915900039672851562e+01,2.926799964904785156e+01,2.934900093078613281e+01,2.942499923706054688e+01,2.949399948120117188e+01,2.957600021362304688e+01,3.322100067138671875e+01,3.263600158691406250e+01,2.980599975585937500e+01,2.988899993896484375e+01,2.997599983215332031e+01,3.006200027465820312e+01,3.014699935913085938e+01,3.024200057983398438e+01,3.160600090026855469e+01,3.322100067138671875e+01,3.224300003051757812e+01,3.291799926757812500e+01,3.297800064086914062e+01,3.368799972534179688e+01,3.280799865722656250e+01,3.383499908447265625e+01,3.090500068664550781e+01,3.099399948120117188e+01,3.099500083923339844e+01,4.092399978637695312e+01,4.012099838256835938e+01,3.322200012207031250e+01,3.349499893188476562e+01,4.506299972534179688e+01,4.507600021362304688e+01,4.506000137329101562e+01,4.504399871826171875e+01,4.499000167846679688e+01,4.491799926757812500e+01,4.487699890136718750e+01,4.482099914550781250e+01,4.475899887084960938e+01,4.470899963378906250e+01,4.466600036621093750e+01,3.272700119018554688e+01,4.309299850463867188e+01,4.570500183105468750e+01,4.634799957275390625e+01,3.396400070190429688e+01,4.177099990844726562e+01,4.478200149536132812e+01,4.630699920654296875e+01,4.264199829101562500e+01,3.421599960327148438e+01,4.170800018310546875e+01,4.444200134277343750e+01,4.626100158691406250e+01,3.399200057983398438e+01,4.214899826049804688e+01,4.657899856567382812e+01,4.725199890136718750e+01,4.761199951171875000e+01,4.475699996948242188e+01,4.494300079345703125e+01,4.459999847412109375e+01,4.096599960327148438e+01,3.640499877929687500e+01,3.696200180053710938e+01,3.682899856567382812e+01,3.698500061035156250e+01,3.588800048828125000e+01,3.590399932861328125e+01,3.584199905395507812e+01,3.549800109863281250e+01,3.545199966430664062e+01,4.625199890136718750e+01,4.721500015258789062e+01,4.959899902343750000e+01,4.959799957275390625e+01,4.959899902343750000e+01,4.959999847412109375e+01,4.960499954223632812e+01,4.741299819946289062e+01,3.721599960327148438e+01,3.766500091552734375e+01,4.906499862670898438e+01,5.053099822998046875e+01
3.646300125122070312e+01,3.439899826049804688e+01,5.224700164794921875e+01,5.338899993896484375e+01,5.335499954223632812e+01,5.331399917602539062e+01,3.760300064086914062e+01,3.661500167846679688e+01,3.757199859619140625e+01,3.571699905395507812e+01,2.931399917602539062e+01,2.799600028991699219e+01,3.256000137329101562e+01,3.999399948120117188e+01,3.887500000000000000e+01,4.000199890136718750e+01,3.670999908447265625e+01,3.697499847412109375e+01,3.599599838256835938e+01,3.350299835205078125e+01,3.164999961853027344e+01,3.173399925231933594e+01,3.183099937438964844e+01,3.181100082397460938e+01,2.801899909973144531e+01,3.226399993896484375e+01,3.233800125122070312e+01,2.992399978637695312e+01,2.838299942016601562e+01,3.141600036621093750e+01,3.209099960327148438e+01,3.206499862670898438e+01,2.937899971008300781e+01,2.882200050354003906e+01,2.890500068664550781e+01,2.898800086975097656e+01,2.908099937438964844e+01,2.919799995422363281e+01,2.927099990844726562e+01,3.344900131225585938e+01,3.353900146484375000e+01,3.364099884033203125e+01,3.356299972534179688e+01,3.156699943542480469e+01,3.131999969482421875e+01,3.199500083923339844e+01,3.053700065612792969e+01,3.491500091552734375e+01,3.005200004577636719e+01,3.013999938964843750e+01,3.024900054931640625e+01,3.029899978637695312e+01,3.036800003051757812e+01,3.045800018310546875e+01,3.242599868774414062e+01,3.247399902343750000e+01,3.261000061035156250e+01,4.100899887084960938e+01,3.074500083923339844e+01,3.205099868774414062e+01,3.181599998474121094e+01,3.996500015258789062e+01,3.995600128173828125e+01,3.332699966430664062e+01,3.327700042724609375e+01,4.507099914550781250e+01,4.504800033569335938e+01,4.514799880981445312e+01,4.506700134277343750e+01,4.507199859619140625e+01,4.507899856567382812e+01,4.507300186157226562e+01,4.508000183105468750e+01,4.507500076293945312e+01,4.507099914550781250e+01,4.507400131225585938e+01,3.266299819946289062e+01,3.279399871826171875e+01,3.328200149536132812e+01,3.326499938964843750e+01,3.329899978637695312e+01,3.411299896240234375e+01,3.858399963378906250e+01,4.097600173950195312e+01,3.808499908447265625e+01,3.607500076293945312e+01,4.195999908447265625e+01,3.738999938964843750e+01,3.680699920654296875e+01,4.352799987792968750e+01,4.605199813842773438e+01,4.729000091552734375e+01,4.749200057983398438e+01,4.800999832153320312e+01,4.777099990844726562e+01,4.746799850463867188e+01,4.590999984741210938e+01,4.314899826049804688e+01,3.891099929809570312e+01,3.707699966430664062e+01,3.663800048828125000e+01,3.568000030517578125e+01,3.599800109863281250e+01,3.606499862670898438e+01,3.600299835205078125e+01,3.570100021362304688e+01,3.563800048828125000e+01,4.253099822998046875e+01,4.732699966430664062e+01,4.920999908447265625e+01,4.927199935913085938e+01,4.954199981689453125e+01,4.931000137329101562e+01,4.938199996948242188e+01,4.729700088500976562e+01,3.759700012207031250e+01,3.782699966430664062e+01,4.887400054931640625e+01,5.053699874877929688e+01
3.656800079345703125e+01,2.769400024414062500e+01,2.767900085449218750e+01,3.354800033569335938e+01,3.715000152587890625e+01,3.736899948120117188e+01,3.750999832153320312e+01,3.485400009155273438e+01,2.790399932861328125e+01,2.943799972534179688e+01,2.931900024414062500e+01,2.794000053405761719e+01,3.256600189208984375e+01,3.999300003051757812e+01,3.908300018310546875e+01,3.995800018310546875e+01,3.689899826049804688e+01,3.695700073242187500e+01,3.288299942016601562e+01,3.349000167846679688e+01,3.134399986267089844e+01,3.138599967956542969e+01,3.119700050354003906e+01,3.225099945068359375e+01,3.225999832153320312e+01,3.220999908447265625e+01,3.228200149536132812e+01,3.231900024414062500e+01,2.829100036621093750e+01,3.139100074768066406e+01,3.207500076293945312e+01,3.198900032043457031e+01,3.206600189208984375e+01,3.222900009155273438e+01,3.238399887084960938e+01,3.222900009155273438e+01,2.896999931335449219e+01,2.907600021362304688e+01,2.917799949645996094e+01,3.337699890136718750e+01,3.344100189208984375e+01,3.357500076293945312e+01,2.948800086975097656e+01,3.087599945068359375e+01,4.543000030517578125e+01,3.719699859619140625e+01,3.076799964904785156e+01,3.484999847412109375e+01,3.377700042724609375e+01,3.008499908447265625e+01,3.399200057983398438e+01,3.387099838256835938e+01,3.139999961853027344e+01,3.034900093078613281e+01,3.236399841308593750e+01,3.238700103759765625e+01,3.246599960327148438e+01,3.412400054931640625e+01,3.061000061035156250e+01,3.207600021362304688e+01,4.095999908447265625e+01,4.093899917602539062e+01,3.200199890136718750e+01,3.263399887084960938e+01,3.293899917602539062e+01,3.191300010681152344e+01,3.329499816894531250e+01,3.329299926757812500e+01,3.206700134277343750e+01,3.845600128173828125e+01,4.004600143432617188e+01,3.604000091552734375e+01,3.702600097656250000e+01,3.614599990844726562e+01,3.611999893188476562e+01,3.663000106811523438e+01,3.577500152587890625e+01,3.266699981689453125e+01,3.268500137329101562e+01,3.402700042724609375e+01,3.775299835205078125e+01,3.377000045776367188e+01,4.511000061035156250e+01,4.710499954223632812e+01,4.790299987792968750e+01,4.812400054931640625e+01,4.783000183105468750e+01,4.493700027465820312e+01,4.117399978637695312e+01,4.774599838256835938e+01,4.852399826049804688e+01,4.891400146484375000e+01,4.633599853515625000e+01,4.551699829101562500e+01,4.622700119018554688e+01,4.731200027465820312e+01,4.337599945068359375e+01,3.661899948120117188e+01,3.625999832153320312e+01,3.617100143432617188e+01,3.582199859619140625e+01,3.584700012207031250e+01,3.594499969482421875e+01,3.605899810791015625e+01,3.600500106811523438e+01,3.591699981689453125e+01,4.288700103759765625e+01,4.829999923706054688e+01,4.961100006103515625e+01,3.602399826049804688e+01,3.614699935913085938e+01,4.054199981689453125e+01,4.507899856567382812e+01,4.631900024414062500e+01,4.529399871826171875e+01,3.760400009155273438e+01,3.798699951171875000e+01,4.901699829101562500e+01,5.054700088500976562e+01
2.838599967956542969e+01,2.845299911499023438e+01,2.756800079345703125e+01,2.927000045776367188e+01,2.855800056457519531e+01,2.857200050354003906e+01,2.777300071716308594e+01,2.780800056457519531e+01,2.783799934387207031e+01,3.330500030517578125e+01,3.209299850463867188e+01,2.789399909973144531e+01,3.883599853515625000e+01,4.267599868774414062e+01,4.000999832153320312e+01,4.002600097656250000e+01,3.694400024414062500e+01,3.691299819946289062e+01,3.316299819946289062e+01,3.350000000000000000e+01,3.196400070190429688e+01,3.218099975585937500e+01,3.236100006103515625e+01,3.234299850463867188e+01,3.231000137329101562e+01,3.226100158691406250e+01,3.118300056457519531e+01,3.120800018310546875e+01,3.254499816894531250e+01,3.257600021362304688e+01,3.185700035095214844e+01,3.177199935913085938e+01,3.180699920654296875e+01,3.207300186157226562e+01,3.230300140380859375e+01,3.234299850463867188e+01,3.234500122070312500e+01,3.042700004577636719e+01,2.906399917602539062e+01,3.330699920654296875e+01,3.331700134277343750e+01,3.342800140380859375e+01,2.940299987792968750e+01,2.984700012207031250e+01,4.468399810791015625e+01,3.632199859619140625e+01,3.005500030517578125e+01,3.374300003051757812e+01,3.372999954223632812e+01,3.000900077819824219e+01,3.410300064086914062e+01,3.415299987792968750e+01,3.409400177001953125e+01,3.471900177001953125e+01,3.431200027465820312e+01,3.229499816894531250e+01,3.172800064086914062e+01,3.039999961853027344e+01,3.051700019836425781e+01,3.054500007629394531e+01,3.386299896240234375e+01,3.940499877929687500e+01,3.132799911499023438e+01,3.294300079345703125e+01,3.272600173950195312e+01,3.167799949645996094e+01,3.270100021362304688e+01,3.274499893188476562e+01,3.189599990844726562e+01,4.371099853515625000e+01,4.415800094604492188e+01,3.925400161743164062e+01,3.207500076293945312e+01,3.208700180053710938e+01,4.450199890136718750e+01,4.602500152587890625e+01,4.900799942016601562e+01,4.928499984741210938e+01,4.458900070190429688e+01,3.355400085449218750e+01,3.298300170898437500e+01,4.443799972534179688e+01,5.167499923706054688e+01,5.133200073242187500e+01,5.187500000000000000e+01,5.235300064086914062e+01,5.156299972534179688e+01,5.099200057983398438e+01,5.120600128173828125e+01,5.030899810791015625e+01,4.760699844360351562e+01,4.785200119018554688e+01,4.365399932861328125e+01,4.133200073242187500e+01,4.160599899291992188e+01,4.517200088500976562e+01,4.279700088500976562e+01,3.580500030517578125e+01,3.588299942016601562e+01,3.599000167846679688e+01,3.608499908447265625e+01,3.775999832153320312e+01,3.606700134277343750e+01,3.605699920654296875e+01,3.607500076293945312e+01,4.454299926757812500e+01,5.134199905395507812e+01,5.242200088500976562e+01,5.313800048828125000e+01,5.042900085449218750e+01,3.604499816894531250e+01,4.021300125122070312e+01,4.662900161743164062e+01,4.745700073242187500e+01,4.632799911499023438e+01,3.744400024414062500e+01,3.814300155639648438e+01,4.869900131225585938e+01,5.054800033569335938e+01
2.872999954223632812e+01,2.873699951171875000e+01,2.814800071716308594e+01,2.733600044250488281e+01,2.740500068664550781e+01,2.850099945068359375e+01,2.855500030517578125e+01,3.420600128173828125e+01,3.063699913024902344e+01,2.879100036621093750e+01,2.865200042724609375e+01,3.021999931335449219e+01,3.026300048828125000e+01,4.280199813842773438e+01,3.999599838256835938e+01,3.993099975585937500e+01,3.204700088500976562e+01,3.204999923706054688e+01,3.169799995422363281e+01,3.177899932861328125e+01,3.198999977111816406e+01,3.218899917602539062e+01,3.223899841308593750e+01,3.231600189208984375e+01,3.238800048828125000e+01,3.242399978637695312e+01,3.252500152587890625e+01,3.259700012207031250e+01,3.259199905395507812e+01,3.255799865722656250e+01,3.265200042724609375e+01,3.264799880981445312e+01,3.184000015258789062e+01,2.857999992370605469e+01,2.862500000000000000e+01,2.871199989318847656e+01,2.880699920654296875e+01,2.889900016784667969e+01,2.897900009155273438e+01,2.905100059509277344e+01,2.913599967956542969e+01,2.921899986267089844e+01,2.933399963378906250e+01,2.941300010681152344e+01,2.951199913024902344e+01,2.960799980163574219e+01,2.968799972534179688e+01,3.360699844360351562e+01,3.367900085449218750e+01,2.993700027465820312e+01,3.401399993896484375e+01,3.413100051879882812e+01,3.411100006103515625e+01,3.468700027465820312e+01,3.464500045776367188e+01,3.420100021362304688e+01,3.422399902343750000e+01,3.035400009155273438e+01,3.045499992370605469e+01,3.050200080871582031e+01,3.895700073242187500e+01,3.961600112915039062e+01,3.119400024414062500e+01,3.114699935913085938e+01,3.273400115966796875e+01,3.467200088500976562e+01,3.152300071716308594e+01,3.155900001525878906e+01,3.164200019836425781e+01,4.173799896240234375e+01,4.257699966430664062e+01,3.707099914550781250e+01,3.346400070190429688e+01,4.362099838256835938e+01,4.948300170898437500e+01,5.031399917602539062e+01,4.974800109863281250e+01,5.098300170898437500e+01,4.827299880981445312e+01,4.722000122070312500e+01,4.906499862670898438e+01,5.064500045776367188e+01,5.133000183105468750e+01,5.072000122070312500e+01,5.232600021362304688e+01,5.250699996948242188e+01,5.200999832153320312e+01,5.330899810791015625e+01,5.275799942016601562e+01,5.234199905395507812e+01,5.163499832153320312e+01,4.388999938964843750e+01,3.561000061035156250e+01,3.997600173950195312e+01,3.997900009155273438e+01,4.426599884033203125e+01,4.193299865722656250e+01,5.194100189208984375e+01,5.272900009155273438e+01,5.241099929809570312e+01,4.864199829101562500e+01,5.107799911499023438e+01,5.084500122070312500e+01,5.117100143432617188e+01,5.141500091552734375e+01,4.726599884033203125e+01,5.185800170898437500e+01,5.385400009155273438e+01,5.264599990844726562e+01,4.988000106811523438e+01,3.607799911499023438e+01,3.840000152587890625e+01,4.587699890136718750e+01,4.669800186157226562e+01,4.590700149536132812e+01,3.711299896240234375e+01,3.805300140380859375e+01,4.872299957275390625e+01,5.053699874877929688e+01
2.703499984741210938e+01,2.706800079345703125e+01,2.713599967956542969e+01,2.719000053405761719e+01,2.722800064086914062e+01,2.732200050354003906e+01,2.742499923706054688e+01,2.747599983215332031e+01,2.765800094604492188e+01,3.054500007629394531e+01,3.094400024414062500e+01,3.050900077819824219e+01,2.913199996948242188e+01,2.874699974060058594e+01,2.936100006103515625e+01,3.212699890136718750e+01,3.303900146484375000e+01,3.656100082397460938e+01,4.204000091552734375e+01,4.189799880981445312e+01,3.735599899291992188e+01,3.708200073242187500e+01,3.513299942016601562e+01,3.218899917602539062e+01,3.223500061035156250e+01,3.235300064086914062e+01,3.249200057983398438e+01,3.386700057983398438e+01,3.393000030517578125e+01,3.394699859619140625e+01,3.266199874877929688e+01,3.287200164794921875e+01,3.236000061035156250e+01,2.883300018310546875e+01,2.874200057983398438e+01,3.294800186157226562e+01,3.297000122070312500e+01,2.885499954223632812e+01,3.315800094604492188e+01,2.898800086975097656e+01,2.909199905395507812e+01,2.917000007629394531e+01,2.925699996948242188e+01,2.934900093078613281e+01,2.942700004577636719e+01,2.951799964904785156e+01,2.960300064086914062e+01,2.968300056457519531e+01,2.977599906921386719e+01,3.387400054931640625e+01,3.391999816894531250e+01,3.394100189208984375e+01,3.398699951171875000e+01,3.460900115966796875e+01,3.447200012207031250e+01,3.418799972534179688e+01,3.039399909973144531e+01,3.033900070190429688e+01,3.042900085449218750e+01,4.128099822998046875e+01,4.221099853515625000e+01,4.041400146484375000e+01,3.236299896240234375e+01,3.107099914550781250e+01,3.118499946594238281e+01,3.366400146484375000e+01,3.645199966430664062e+01,4.132500076293945312e+01,4.556399917602539062e+01,4.569900131225585938e+01,4.215299987792968750e+01,4.352299880981445312e+01,4.491699981689453125e+01,4.706100082397460938e+01,4.995100021362304688e+01,5.073199844360351562e+01,5.081800079345703125e+01,5.103300094604492188e+01,4.911399841308593750e+01,4.984700012207031250e+01,5.172800064086914062e+01,5.151699829101562500e+01,5.155899810791015625e+01,4.871500015258789062e+01,4.878400039672851562e+01,5.036500167846679688e+01,5.077799987792968750e+01,5.307400131225585938e+01,5.201800155639648438e+01,5.120800018310546875e+01,5.154100036621093750e+01,3.576499938964843750e+01,3.688700103759765625e+01,3.686999893188476562e+01,3.553099822998046875e+01,4.663299942016601562e+01,4.679600143432617188e+01,5.159199905395507812e+01,5.234700012207031250e+01,5.279000091552734375e+01,5.175000000000000000e+01,5.102399826049804688e+01,5.179499816894531250e+01,5.234500122070312500e+01,5.193299865722656250e+01,4.858000183105468750e+01,4.780500030517578125e+01,4.957799911499023438e+01,4.771400070190429688e+01,4.706100082397460938e+01,3.637500000000000000e+01,3.645899963378906250e+01,3.668999862670898438e+01,4.144699859619140625e+01,3.789599990844726562e+01,3.651200103759765625e+01,3.838499832153320312e+01,4.909400177001953125e+01,5.056600189208984375e+01
2.710000038146972656e+01,2.977599906921386719e+01,2.972200012207031250e+01,2.705699920654296875e+01,2.707299995422363281e+01,2.716799926757812500e+01,2.724300003051757812e+01,2.730999946594238281e+01,2.739399909973144531e+01,3.023200035095214844e+01,3.053800010681152344e+01,3.051199913024902344e+01,2.890200042724609375e+01,3.057099914550781250e+01,3.062199974060058594e+01,3.057600021362304688e+01,3.209199905395507812e+01,2.886499977111816406e+01,4.116299819946289062e+01,4.166999816894531250e+01,3.947000122070312500e+01,3.906999969482421875e+01,3.921400070190429688e+01,3.838000106811523438e+01,4.216799926757812500e+01,4.153599929809570312e+01,3.853699874877929688e+01,3.589899826049804688e+01,3.374100112915039062e+01,3.480799865722656250e+01,3.386700057983398438e+01,3.284700012207031250e+01,3.290299987792968750e+01,3.295500183105468750e+01,3.298600006103515625e+01,3.300400161743164062e+01,3.313000106811523438e+01,3.316799926757812500e+01,3.317599868774414062e+01,3.176799964904785156e+01,3.041799926757812500e+01,3.065200042724609375e+01,2.920899963378906250e+01,2.927700042724609375e+01,2.935000038146972656e+01,2.943199920654296875e+01,2.952099990844726562e+01,2.961499977111816406e+01,2.969400024414062500e+01,3.380099868774414062e+01,3.404499816894531250e+01,3.400099945068359375e+01,3.446599960327148438e+01,3.454399871826171875e+01,3.417100143432617188e+01,3.417100143432617188e+01,3.032699966430664062e+01,3.034000015258789062e+01,3.042900085449218750e+01,4.194300079345703125e+01,4.611899948120117188e+01,4.538800048828125000e+01,3.845299911499023438e+01,3.582799911499023438e+01,4.094200134277343750e+01,4.515299987792968750e+01,4.613299942016601562e+01,4.647399902343750000e+01,4.912900161743164062e+01,4.894699859619140625e+01,4.866699981689453125e+01,4.788000106811523438e+01,4.923500061035156250e+01,4.659700012207031250e+01,4.885100173950195312e+01,4.813000106811523438e+01,4.863499832153320312e+01,5.083900070190429688e+01,4.685900115966796875e+01,4.911500167846679688e+01,5.102899932861328125e+01,5.091099929809570312e+01,4.927299880981445312e+01,4.323199844360351562e+01,4.674599838256835938e+01,4.870199966430664062e+01,4.974000167846679688e+01,5.087200164794921875e+01,4.931700134277343750e+01,3.598500061035156250e+01,5.970199966430664062e+01,4.874300003051757812e+01,4.682300186157226562e+01,3.683499908447265625e+01,3.654299926757812500e+01,4.661500167846679688e+01,4.927399826049804688e+01,4.902500152587890625e+01,5.160599899291992188e+01,5.204100036621093750e+01,5.097700119018554688e+01,4.894699859619140625e+01,4.971900177001953125e+01,4.814899826049804688e+01,4.790499877929687500e+01,4.383399963378906250e+01,3.790399932861328125e+01,4.954299926757812500e+01,4.975099945068359375e+01,4.708900070190429688e+01,3.645299911499023438e+01,3.658499908447265625e+01,3.680400085449218750e+01,3.683000183105468750e+01,3.790999984741210938e+01,3.654100036621093750e+01,3.811500167846679688e+01,4.897700119018554688e+01,5.055500030517578125e+01
4.266799926757812500e+01,4.268199920654296875e+01,4.253699874877929688e+01,4.164899826049804688e+01,2.849099922180175781e+01,2.850200080871582031e+01,2.721800041198730469e+01,2.728199958801269531e+01,4.163899993896484375e+01,4.165999984741210938e+01,4.156200027465820312e+01,2.897599983215332031e+01,2.894300079345703125e+01,2.758499908447265625e+01,3.047699928283691406e+01,3.051199913024902344e+01,2.770499992370605469e+01,2.787100028991699219e+01,3.822200012207031250e+01,3.910800170898437500e+01,3.721400070190429688e+01,3.884000015258789062e+01,3.950899887084960938e+01,4.024100112915039062e+01,4.307699966430664062e+01,4.351599884033203125e+01,4.106900024414062500e+01,3.897900009155273438e+01,3.840900039672851562e+01,3.949000167846679688e+01,4.019800186157226562e+01,4.011899948120117188e+01,3.750899887084960938e+01,3.285100173950195312e+01,3.294699859619140625e+01,3.303499984741210938e+01,3.311700057983398438e+01,3.316699981689453125e+01,3.330400085449218750e+01,3.329299926757812500e+01,3.194400024414062500e+01,3.357400131225585938e+01,2.949099922180175781e+01,2.932600021362304688e+01,2.936700057983398438e+01,2.942099952697753906e+01,2.947400093078613281e+01,2.953700065612792969e+01,2.960499954223632812e+01,3.373300170898437500e+01,3.373400115966796875e+01,3.382899856567382812e+01,3.580199813842773438e+01,3.439899826049804688e+01,3.406600189208984375e+01,3.399200057983398438e+01,3.025499916076660156e+01,3.034900093078613281e+01,3.041799926757812500e+01,4.168700027465820312e+01,4.531800079345703125e+01,4.523899841308593750e+01,3.854800033569335938e+01,4.359899902343750000e+01,4.590299987792968750e+01,4.595700073242187500e+01,4.653499984741210938e+01,4.642800140380859375e+01,4.874800109863281250e+01,4.936399841308593750e+01,4.911899948120117188e+01,4.942499923706054688e+01,4.747499847412109375e+01,4.694300079345703125e+01,4.761000061035156250e+01,4.643899917602539062e+01,3.560599899291992188e+01,3.468099975585937500e+01,4.620399856567382812e+01,4.886999893188476562e+01,4.873199844360351562e+01,4.337300109863281250e+01,4.270399856567382812e+01,3.494499969482421875e+01,4.683200073242187500e+01,4.890999984741210938e+01,4.818899917602539062e+01,3.606200027465820312e+01,3.601699829101562500e+01,3.591999816894531250e+01,4.892599868774414062e+01,4.935100173950195312e+01,4.676599884033203125e+01,3.667200088500976562e+01,3.707600021362304688e+01,4.672499847412109375e+01,4.929600143432617188e+01,4.907099914550781250e+01,3.640599822998046875e+01,4.028300094604492188e+01,3.977099990844726562e+01,4.894699859619140625e+01,4.975199890136718750e+01,4.763700103759765625e+01,3.747299957275390625e+01,3.708700180053710938e+01,4.747100067138671875e+01,4.956399917602539062e+01,4.975000000000000000e+01,4.704700088500976562e+01,3.648099899291992188e+01,3.657099914550781250e+01,3.679999923706054688e+01,3.681700134277343750e+01,3.799000167846679688e+01,3.656399917602539062e+01,3.822000122070312500e+01,4.891500091552734375e+01,5.055099868774414062e+01
4.998899841308593750e+01,4.995399856567382812e+01,4.284000015258789062e+01,4.275199890136718750e+01,4.280199813842773438e+01,4.263499832153320312e+01,4.261399841308593750e+01,2.735300064086914062e+01,4.161800003051757812e+01,4.155300140380859375e+01,4.159000015258789062e+01,4.164300155639648438e+01,4.158800125122070312e+01,4.157600021362304688e+01,2.752700042724609375e+01,2.757399940490722656e+01,2.763599967956542969e+01,2.770499992370605469e+01,2.878400039672851562e+01,2.931500053405761719e+01,2.787400054931640625e+01,2.799099922180175781e+01,3.823400115966796875e+01,3.792100143432617188e+01,3.927700042724609375e+01,3.930599975585937500e+01,4.011399841308593750e+01,3.833800125122070312e+01,3.891999816894531250e+01,3.995999908447265625e+01,4.282199859619140625e+01,4.263499832153320312e+01,4.455500030517578125e+01,4.066199874877929688e+01,4.057099914550781250e+01,4.027000045776367188e+01,3.293999862670898438e+01,3.309500122070312500e+01,3.317499923706054688e+01,3.322200012207031250e+01,3.207799911499023438e+01,3.070100021362304688e+01,2.936300086975097656e+01,3.007099914550781250e+01,2.945499992370605469e+01,2.950200080871582031e+01,3.368600082397460938e+01,3.258200073242187500e+01,2.965600013732910156e+01,3.355699920654296875e+01,3.372999954223632812e+01,3.381900024414062500e+01,3.578099822998046875e+01,3.428499984741210938e+01,3.403400039672851562e+01,3.400000000000000000e+01,3.023699951171875000e+01,3.293700027465820312e+01,3.290299987792968750e+01,4.077500152587890625e+01,4.219200134277343750e+01,4.184400177001953125e+01,3.536899948120117188e+01,4.352600097656250000e+01,4.586299896240234375e+01,4.740399932861328125e+01,4.434400177001953125e+01,4.163999938964843750e+01,4.652500152587890625e+01,4.641299819946289062e+01,4.486700057983398438e+01,4.574000167846679688e+01,4.207099914550781250e+01,4.616699981689453125e+01,5.146900177001953125e+01,4.639199829101562500e+01,3.470700073242187500e+01,4.072700119018554688e+01,4.620500183105468750e+01,4.886800003051757812e+01,4.868899917602539062e+01,4.657600021362304688e+01,3.639699935913085938e+01,3.520399856567382812e+01,4.745299911499023438e+01,4.889899826049804688e+01,4.910300064086914062e+01,4.459400177001953125e+01,4.577199935913085938e+01,4.543299865722656250e+01,4.963299942016601562e+01,4.927500152587890625e+01,4.744800186157226562e+01,3.695999908447265625e+01,3.704299926757812500e+01,4.744100189208984375e+01,4.930699920654296875e+01,4.980199813842773438e+01,4.212799835205078125e+01,4.266600036621093750e+01,3.802700042724609375e+01,4.905099868774414062e+01,4.988000106811523438e+01,4.831800079345703125e+01,3.710800170898437500e+01,3.757600021362304688e+01,4.747999954223632812e+01,4.958800125122070312e+01,5.014300155639648438e+01,4.697900009155273438e+01,3.655599975585937500e+01,3.659299850463867188e+01,3.684400177001953125e+01,3.990000152587890625e+01,3.929000091552734375e+01,3.929499816894531250e+01,3.741500091552734375e+01,4.891699981689453125e+01,4.956399917602539062e+01
5.004899978637695312e+01,4.997000122070312500e+01,4.997100067138671875e+01,5.000799942016601562e+01,4.995500183105468750e+01,5.000899887084960938e+01,4.283900070190429688e+01,4.281600189208984375e+01,4.264300155639648438e+01,5.338600158691406250e+01,4.747999954223632812e+01,4.157600021362304688e+01,4.155699920654296875e+01,4.157799911499023438e+01,3.482199859619140625e+01,4.455099868774414062e+01,4.382799911499023438e+01,2.762400054931640625e+01,2.771299934387207031e+01,2.877599906921386719e+01,2.787599945068359375e+01,2.793400001525878906e+01,2.797100067138671875e+01,2.804299926757812500e+01,2.811899948120117188e+01,2.818400001525878906e+01,2.928499984741210938e+01,3.238999938964843750e+01,3.805300140380859375e+01,3.849800109863281250e+01,3.987799835205078125e+01,4.351699829101562500e+01,4.425799942016601562e+01,4.298899841308593750e+01,4.399499893188476562e+01,4.228499984741210938e+01,4.226200103759765625e+01,4.197800064086914062e+01,3.906999969482421875e+01,3.719100189208984375e+01,3.249100112915039062e+01,3.315499877929687500e+01,2.943899917602539062e+01,3.411000061035156250e+01,3.020100021362304688e+01,3.367900085449218750e+01,3.371099853515625000e+01,2.965299987792968750e+01,2.970499992370605469e+01,2.975099945068359375e+01,3.359999847412109375e+01,3.365100097656250000e+01,3.436800003051757812e+01,3.420000076293945312e+01,3.401599884033203125e+01,3.030699920654296875e+01,3.020999908447265625e+01,3.296400070190429688e+01,3.192600059509277344e+01,3.881000137329101562e+01,4.315499877929687500e+01,4.181800079345703125e+01,3.919499969482421875e+01,4.055099868774414062e+01,4.595700073242187500e+01,4.809400177001953125e+01,5.548300170898437500e+01,5.556700134277343750e+01,4.710100173950195312e+01,4.634799957275390625e+01,4.508499908447265625e+01,3.354700088500976562e+01,3.513700103759765625e+01,4.600299835205078125e+01,4.761700057983398438e+01,4.634799957275390625e+01,4.655099868774414062e+01,4.454899978637695312e+01,4.618600082397460938e+01,4.885499954223632812e+01,4.869400024414062500e+01,4.651599884033203125e+01,3.653599929809570312e+01,3.524300003051757812e+01,4.685300064086914062e+01,4.890499877929687500e+01,4.807500076293945312e+01,4.599599838256835938e+01,4.595700073242187500e+01,4.552799987792968750e+01,4.903300094604492188e+01,4.929399871826171875e+01,4.693299865722656250e+01,3.706600189208984375e+01,3.701599884033203125e+01,4.679299926757812500e+01,4.929899978637695312e+01,4.894400024414062500e+01,4.150400161743164062e+01,4.281200027465820312e+01,3.630699920654296875e+01,4.906299972534179688e+01,4.977600097656250000e+01,4.760400009155273438e+01,3.749100112915039062e+01,3.744100189208984375e+01,3.824900054931640625e+01,4.962099838256835938e+01,4.975000000000000000e+01,4.694699859619140625e+01,3.815599822998046875e+01,4.006800079345703125e+01,4.475299835205078125e+01,3.671300125122070312e+01,3.666999816894531250e+01,3.655300140380859375e+01,3.673500061035156250e+01,3.768099975585937500e+01,3.996400070190429688e+01
5.065100097656250000e+01,5.047399902343750000e+01,5.034099960327148438e+01,5.017100143432617188e+01,5.002199935913085938e+01,4.995999908447265625e+01,4.998899841308593750e+01,4.992499923706054688e+01,4.753099822998046875e+01,4.748500061035156250e+01,5.338000106811523438e+01,5.342800140380859375e+01,4.270899963378906250e+01,4.256800079345703125e+01,4.452700042724609375e+01,4.602899932861328125e+01,4.543399810791015625e+01,4.456600189208984375e+01,4.456900024414062500e+01,4.453900146484375000e+01,4.385900115966796875e+01,2.806999969482421875e+01,3.061199951171875000e+01,3.622600173950195312e+01,2.812800025939941406e+01,3.446500015258789062e+01,2.826300048828125000e+01,2.830800056457519531e+01,2.833399963378906250e+01,2.837700080871582031e+01,2.842499923706054688e+01,3.876300048828125000e+01,3.846900177001953125e+01,4.116400146484375000e+01,4.258800125122070312e+01,4.310800170898437500e+01,4.190399932861328125e+01,4.213199996948242188e+01,4.055599975585937500e+01,3.923500061035156250e+01,3.262400054931640625e+01,3.316799926757812500e+01,3.089500045776367188e+01,3.381600189208984375e+01,3.382199859619140625e+01,3.374200057983398438e+01,3.371799850463867188e+01,2.972699928283691406e+01,3.072400093078613281e+01,2.981100082397460938e+01,3.238000106811523438e+01,3.417300033569335938e+01,3.426699829101562500e+01,3.395700073242187500e+01,3.389300155639648438e+01,3.309099960327148438e+01,3.013500022888183594e+01,3.020899963378906250e+01,3.593899917602539062e+01,3.978900146484375000e+01,4.124300003051757812e+01,4.544599914550781250e+01,4.561399841308593750e+01,4.002899932861328125e+01,4.292300033569335938e+01,4.666600036621093750e+01,4.694499969482421875e+01,4.010200119018554688e+01,4.652700042724609375e+01,4.632099914550781250e+01,4.435400009155273438e+01,3.354199981689453125e+01,3.510499954223632812e+01,4.610800170898437500e+01,4.760900115966796875e+01,4.630400085449218750e+01,4.656900024414062500e+01,4.643099975585937500e+01,4.619400024414062500e+01,4.906900024414062500e+01,4.862200164794921875e+01,3.672399902343750000e+01,3.524100112915039062e+01,3.539199829101562500e+01,4.698099899291992188e+01,4.890299987792968750e+01,4.805199813842773438e+01,5.138100051879882812e+01,5.122000122070312500e+01,3.593299865722656250e+01,4.906000137329101562e+01,4.926699829101562500e+01,4.659700012207031250e+01,3.575600051879882812e+01,3.680099868774414062e+01,4.687300109863281250e+01,4.903599929809570312e+01,4.894200134277343750e+01,4.781600189208984375e+01,4.336199951171875000e+01,3.793899917602539062e+01,4.910400009155273438e+01,4.974100112915039062e+01,4.756299972534179688e+01,3.902099990844726562e+01,3.715299987792968750e+01,3.759700012207031250e+01,4.890900039672851562e+01,4.894599914550781250e+01,3.847100067138671875e+01,3.874000167846679688e+01,3.654999923706054688e+01,3.652299880981445312e+01,3.651300048828125000e+01,3.658300018310546875e+01,3.664400100708007812e+01,3.670199966430664062e+01,3.679899978637695312e+01,3.690599822998046875e+01
5.120800018310546875e+01,5.106000137329101562e+01,5.088700103759765625e+01,5.074499893188476562e+01,5.059199905395507812e+01,5.059600067138671875e+01,4.989799880981445312e+01,4.992800140380859375e+01,4.995700073242187500e+01,4.995600128173828125e+01,4.997200012207031250e+01,4.995000076293945312e+01,4.449100112915039062e+01,4.447900009155273438e+01,4.577799987792968750e+01,5.253799819946289062e+01,5.254700088500976562e+01,5.254100036621093750e+01,5.257500076293945312e+01,4.514099884033203125e+01,4.909400177001953125e+01,4.915700149536132812e+01,4.913199996948242188e+01,3.588399887084960938e+01,3.343000030517578125e+01,3.619300079345703125e+01,3.700500106811523438e+01,3.700899887084960938e+01,2.835899925231933594e+01,2.841099929809570312e+01,2.844499969482421875e+01,2.922699928283691406e+01,2.960499954223632812e+01,2.862700080871582031e+01,2.867399978637695312e+01,3.703400039672851562e+01,3.794300079345703125e+01,3.950699996948242188e+01,3.905699920654296875e+01,3.634400177001953125e+01,2.934600067138671875e+01,2.930699920654296875e+01,2.981599998474121094e+01,3.097800064086914062e+01,3.092499923706054688e+01,3.350099945068359375e+01,3.358499908447265625e+01,3.373600006103515625e+01,3.175300025939941406e+01,3.253200149536132812e+01,3.253499984741210938e+01,3.416400146484375000e+01,3.415100097656250000e+01,3.383100128173828125e+01,3.388000106811523438e+01,3.139699935913085938e+01,3.269300079345703125e+01,3.267900085449218750e+01,3.976300048828125000e+01,4.576499938964843750e+01,4.585499954223632812e+01,4.660900115966796875e+01,5.122800064086914062e+01,4.962900161743164062e+01,4.562400054931640625e+01,4.404000091552734375e+01,3.986700057983398438e+01,3.390700149536132812e+01,4.553799819946289062e+01,4.552999877929687500e+01,3.646200180053710938e+01,3.625000000000000000e+01,4.192599868774414062e+01,4.554199981689453125e+01,4.558100128173828125e+01,4.558900070190429688e+01,4.591199874877929688e+01,4.663800048828125000e+01,4.624599838256835938e+01,4.702399826049804688e+01,4.705599975585937500e+01,3.815399932861328125e+01,3.536500167846679688e+01,3.629800033569335938e+01,4.632400131225585938e+01,4.630099868774414062e+01,4.865200042724609375e+01,5.089500045776367188e+01,5.106000137329101562e+01,4.843500137329101562e+01,4.692800140380859375e+01,4.698600006103515625e+01,4.654199981689453125e+01,3.863800048828125000e+01,3.587699890136718750e+01,3.669900131225585938e+01,3.596900177001953125e+01,4.888600158691406250e+01,4.840800094604492188e+01,4.366899871826171875e+01,3.972399902343750000e+01,3.822800064086914062e+01,3.626499938964843750e+01,3.903400039672851562e+01,3.622900009155273438e+01,3.632500076293945312e+01,3.638399887084960938e+01,3.636199951171875000e+01,3.640399932861328125e+01,3.641099929809570312e+01,3.639400100708007812e+01,4.403099822998046875e+01,4.930099868774414062e+01,4.787400054931640625e+01,3.672600173950195312e+01,3.769400024414062500e+01,3.716299819946289062e+01,3.718399810791015625e+01,3.728900146484375000e+01
5.185699844360351562e+01,5.164799880981445312e+01,5.152600097656250000e+01,5.134899902343750000e+01,5.124300003051757812e+01,5.064500045776367188e+01,4.776699829101562500e+01,5.077799987792968750e+01,5.141400146484375000e+01,5.153699874877929688e+01,4.945899963378906250e+01,4.993899917602539062e+01,4.993799972534179688e+01,4.771699905395507812e+01,4.780300140380859375e+01,5.255699920654296875e+01,5.195000076293945312e+01,5.246300125122070312e+01,5.251800155639648438e+01,5.253499984741210938e+01,5.251399993896484375e+01,4.905300140380859375e+01,5.080500030517578125e+01,5.081600189208984375e+01,4.913199996948242188e+01,5.172000122070312500e+01,5.007899856567382812e+01,3.636700057983398438e+01,3.215700149536132812e+01,2.842799949645996094e+01,3.121299934387207031e+01,3.115099906921386719e+01,3.008499908447265625e+01,2.867399978637695312e+01,2.870999908447265625e+01,2.884700012207031250e+01,2.892200088500976562e+01,3.176600074768066406e+01,3.182999992370605469e+01,3.194000053405761719e+01,3.190800094604492188e+01,2.917200088500976562e+01,2.960499954223632812e+01,3.972100067138671875e+01,3.482899856567382812e+01,2.948800086975097656e+01,3.107099914550781250e+01,2.975200080871582031e+01,2.980900001525878906e+01,3.176799964904785156e+01,3.251100158691406250e+01,3.413299942016601562e+01,3.405599975585937500e+01,3.378300094604492188e+01,4.050299835205078125e+01,2.999099922180175781e+01,3.273199844360351562e+01,3.639500045776367188e+01,4.059700012207031250e+01,4.305899810791015625e+01,4.326900100708007812e+01,4.605500030517578125e+01,5.037200164794921875e+01,4.970700073242187500e+01,5.281000137329101562e+01,5.205599975585937500e+01,5.234400177001953125e+01,3.255699920654296875e+01,3.285100173950195312e+01,3.375899887084960938e+01,3.451900100708007812e+01,3.380599975585937500e+01,3.404399871826171875e+01,3.629399871826171875e+01,3.652899932861328125e+01,4.361999893188476562e+01,4.495700073242187500e+01,4.553300094604492188e+01,4.420600128173828125e+01,3.652700042724609375e+01,3.529299926757812500e+01,3.531299972534179688e+01,3.536000061035156250e+01,3.547299957275390625e+01,3.549399948120117188e+01,3.553200149536132812e+01,4.740499877929687500e+01,4.937300109863281250e+01,4.939300155639648438e+01,4.588399887084960938e+01,3.568399810791015625e+01,3.571500015258789062e+01,3.576200103759765625e+01,3.579399871826171875e+01,3.581499862670898438e+01,3.586700057983398438e+01,3.588999938964843750e+01,5.350400161743164062e+01,4.249700164794921875e+01,3.598099899291992188e+01,3.692800140380859375e+01,3.955300140380859375e+01,3.606900024414062500e+01,3.610400009155273438e+01,3.613399887084960938e+01,3.618700027465820312e+01,3.622600173950195312e+01,3.625899887084960938e+01,3.631100082397460938e+01,3.642599868774414062e+01,3.682899856567382812e+01,4.492900085449218750e+01,5.046500015258789062e+01,5.032699966430664062e+01,4.076200103759765625e+01,3.894800186157226562e+01,3.717499923706054688e+01,3.965800094604492188e+01,3.814199829101562500e+01
5.217900085449218750e+01,5.216899871826171875e+01,5.214400100708007812e+01,5.194499969482421875e+01,5.191400146484375000e+01,4.996900177001953125e+01,4.996799850463867188e+01,5.085800170898437500e+01,5.145500183105468750e+01,5.181299972534179688e+01,5.152299880981445312e+01,5.455099868774414062e+01,4.997499847412109375e+01,4.795600128173828125e+01,4.789699935913085938e+01,5.256200027465820312e+01,5.196900177001953125e+01,5.200400161743164062e+01,5.196300125122070312e+01,5.334099960327148438e+01,5.338299942016601562e+01,4.953400039672851562e+01,5.083300018310546875e+01,5.075899887084960938e+01,5.037400054931640625e+01,5.173799896240234375e+01,5.094400024414062500e+01,5.230099868774414062e+01,5.195000076293945312e+01,5.086999893188476562e+01,4.911500167846679688e+01,4.911199951171875000e+01,3.019899940490722656e+01,2.978300094604492188e+01,2.876199913024902344e+01,2.876300048828125000e+01,2.996500015258789062e+01,2.895599937438964844e+01,2.903400039672851562e+01,3.179000091552734375e+01,3.183200073242187500e+01,3.186000061035156250e+01,2.920700073242187500e+01,2.927700042724609375e+01,2.935099983215332031e+01,2.938599967956542969e+01,3.349499893188476562e+01,3.353799819946289062e+01,2.967900085449218750e+01,2.972299957275390625e+01,3.995500183105468750e+01,3.151099967956542969e+01,3.300299835205078125e+01,3.378300094604492188e+01,3.314099884033203125e+01,2.995599937438964844e+01,2.998500061035156250e+01,3.694900131225585938e+01,3.889199829101562500e+01,4.147900009155273438e+01,3.933200073242187500e+01,4.545800018310546875e+01,4.805799865722656250e+01,5.137300109863281250e+01,5.309099960327148438e+01,5.295199966430664062e+01,5.231900024414062500e+01,4.365399932861328125e+01,3.314799880981445312e+01,3.338000106811523438e+01,3.372000122070312500e+01,3.400400161743164062e+01,3.428200149536132812e+01,3.447399902343750000e+01,3.464899826049804688e+01,3.480300140380859375e+01,3.497600173950195312e+01,3.792399978637695312e+01,3.654700088500976562e+01,3.656100082397460938e+01,3.541199874877929688e+01,3.546200180053710938e+01,3.549700164794921875e+01,3.554800033569335938e+01,3.557199859619140625e+01,3.726200103759765625e+01,3.728599929809570312e+01,3.569100189208984375e+01,3.572700119018554688e+01,3.576200103759765625e+01,3.580099868774414062e+01,3.583300018310546875e+01,3.586100006103515625e+01,3.754000091552734375e+01,3.756999969482421875e+01,3.597999954223632812e+01,3.599100112915039062e+01,3.600000000000000000e+01,3.604000091552734375e+01,3.609299850463867188e+01,3.613299942016601562e+01,3.766299819946289062e+01,3.773400115966796875e+01,3.768399810791015625e+01,3.777500152587890625e+01,3.630599975585937500e+01,3.640000152587890625e+01,3.643600082397460938e+01,4.410100173950195312e+01,4.440499877929687500e+01,4.599100112915039062e+01,4.516299819946289062e+01,4.513899993896484375e+01,4.579499816894531250e+01,3.995000076293945312e+01,3.955500030517578125e+01,3.918299865722656250e+01,3.716299819946289062e+01,3.711500167846679688e+01
5.177600097656250000e+01,5.193099975585937500e+01,5.215499877929687500e+01,5.213800048828125000e+01,5.206600189208984375e+01,5.133300018310546875e+01,5.330300140380859375e+01,5.101300048828125000e+01,5.164500045776367188e+01,5.178699874877929688e+01,5.129000091552734375e+01,5.459099960327148438e+01,5.461999893188476562e+01,4.793199920654296875e+01,5.253900146484375000e+01,5.255099868774414062e+01,5.199300003051757812e+01,5.201200103759765625e+01,5.195999908447265625e+01,5.256299972534179688e+01,4.906499862670898438e+01,4.938399887084960938e+01,5.134899902343750000e+01,5.104399871826171875e+01,5.049100112915039062e+01,4.987300109863281250e+01,5.169300079345703125e+01,5.283700180053710938e+01,5.118500137329101562e+01,5.174399948120117188e+01,5.170199966430664062e+01,4.909600067138671875e+01,4.913399887084960938e+01,4.911299896240234375e+01,4.915499877929687500e+01,2.966699981689453125e+01,3.001700019836425781e+01,3.005100059509277344e+01,2.898399925231933594e+01,2.894199943542480469e+01,3.184399986267089844e+01,3.188299942016601562e+01,2.919499969482421875e+01,2.924799919128417969e+01,2.933600044250488281e+01,2.938800048828125000e+01,2.943099975585937500e+01,3.361600112915039062e+01,3.364099884033203125e+01,2.962899971008300781e+01,4.002299880981445312e+01,2.981399917602539062e+01,2.990600013732910156e+01,3.308599853515625000e+01,3.468700027465820312e+01,3.168199920654296875e+01,3.159000015258789062e+01,4.024300003051757812e+01,4.100500106811523438e+01,3.986800003051757812e+01,3.825999832153320312e+01,4.525299835205078125e+01,4.833599853515625000e+01,5.018299865722656250e+01,5.420100021362304688e+01,5.239699935913085938e+01,5.224900054931640625e+01,4.711800003051757812e+01,4.786000061035156250e+01,4.894599914550781250e+01,4.865299987792968750e+01,3.427600097656250000e+01,3.871699905395507812e+01,4.525000000000000000e+01,4.510100173950195312e+01,3.646200180053710938e+01,3.648300170898437500e+01,3.786199951171875000e+01,3.546400070190429688e+01,3.637599945068359375e+01,3.700099945068359375e+01,3.707400131225585938e+01,4.077500152587890625e+01,3.577199935913085938e+01,3.580400085449218750e+01,3.583200073242187500e+01,3.586100006103515625e+01,3.587699890136718750e+01,3.589300155639648438e+01,4.861000061035156250e+01,5.156800079345703125e+01,5.029999923706054688e+01,4.962300109863281250e+01,4.963199996948242188e+01,5.104800033569335938e+01,4.881999969482421875e+01,3.770199966430664062e+01,3.768600082397460938e+01,3.761700057983398438e+01,3.767300033569335938e+01,3.860699844360351562e+01,4.447200012207031250e+01,3.824300003051757812e+01,4.000199890136718750e+01,3.994499969482421875e+01,4.531299972534179688e+01,4.627799987792968750e+01,4.589599990844726562e+01,4.608000183105468750e+01,4.613700103759765625e+01,4.711399841308593750e+01,4.139500045776367188e+01,4.157799911499023438e+01,4.006299972534179688e+01,3.998799896240234375e+01,3.990499877929687500e+01,3.941299819946289062e+01,3.899900054931640625e+01,3.717100143432617188e+01
5.116899871826171875e+01,5.132500076293945312e+01,5.142900085449218750e+01,5.171699905395507812e+01,5.134400177001953125e+01,5.172900009155273438e+01,5.314899826049804688e+01,5.120299911499023438e+01,5.179299926757812500e+01,5.177799987792968750e+01,5.115100097656250000e+01,5.325999832153320312e+01,5.440499877929687500e+01,5.404499816894531250e+01,5.427099990844726562e+01,5.296799850463867188e+01,5.200400161743164062e+01,5.200000000000000000e+01,5.254299926757812500e+01,5.258700180053710938e+01,4.842800140380859375e+01,4.784000015258789062e+01,5.133000183105468750e+01,5.079000091552734375e+01,5.049200057983398438e+01,4.897800064086914062e+01,5.238100051879882812e+01,5.286100006103515625e+01,5.062799835205078125e+01,4.981900024414062500e+01,4.890800094604492188e+01,4.790999984741210938e+01,4.825400161743164062e+01,4.845600128173828125e+01,4.906999969482421875e+01,4.914599990844726562e+01,3.167799949645996094e+01,3.185799980163574219e+01,3.470800018310546875e+01,3.007999992370605469e+01,3.010700035095214844e+01,3.018000030517578125e+01,3.023699951171875000e+01,3.543299865722656250e+01,3.447100067138671875e+01,3.039900016784667969e+01,3.645600128173828125e+01,2.948900032043457031e+01,3.315100097656250000e+01,2.960000038146972656e+01,3.376800155639648438e+01,3.381399917602539062e+01,3.381700134277343750e+01,2.981699943542480469e+01,3.132600021362304688e+01,3.132600021362304688e+01,3.151799964904785156e+01,4.158900070190429688e+01,4.160400009155273438e+01,4.160499954223632812e+01,4.100400161743164062e+01,4.452799987792968750e+01,4.786500167846679688e+01,5.325600051879882812e+01,5.425000000000000000e+01,5.250699996948242188e+01,5.257300186157226562e+01,4.720299911499023438e+01,4.754000091552734375e+01,4.862599945068359375e+01,4.828900146484375000e+01,3.481999969482421875e+01,4.383499908447265625e+01,4.695800018310546875e+01,4.634400177001953125e+01,4.216799926757812500e+01,3.615999984741210938e+01,3.652899932861328125e+01,4.783499908447265625e+01,4.839199829101562500e+01,4.402799987792968750e+01,4.652799987792968750e+01,4.822399902343750000e+01,4.761100006103515625e+01,3.950899887084960938e+01,4.445999908447265625e+01,4.604700088500976562e+01,4.334899902343750000e+01,5.082099914550781250e+01,5.469100189208984375e+01,5.470600128173828125e+01,5.368199920654296875e+01,5.264799880981445312e+01,5.257699966430664062e+01,5.304999923706054688e+01,5.165299987792968750e+01,4.844699859619140625e+01,4.020500183105468750e+01,3.982099914550781250e+01,4.121099853515625000e+01,4.116400146484375000e+01,4.639199829101562500e+01,4.108800125122070312e+01,4.009999847412109375e+01,4.579899978637695312e+01,5.975699996948242188e+01,5.981999969482421875e+01,5.986399841308593750e+01,4.602999877929687500e+01,4.611100006103515625e+01,4.120999908447265625e+01,4.172100067138671875e+01,3.940999984741210938e+01,3.901300048828125000e+01,3.863399887084960938e+01,3.829199981689453125e+01,3.904399871826171875e+01,3.926499938964843750e+01,3.921799850463867188e+01
5.059899902343750000e+01,5.071200180053710938e+01,5.084299850463867188e+01,5.112400054931640625e+01,5.065599822998046875e+01,4.818399810791015625e+01,5.076699829101562500e+01,5.131700134277343750e+01,5.179600143432617188e+01,5.160900115966796875e+01,5.097600173950195312e+01,5.125000000000000000e+01,4.945399856567382812e+01,5.453799819946289062e+01,5.459000015258789062e+01,5.500999832153320312e+01,5.496200180053710938e+01,5.495700073242187500e+01,5.494100189208984375e+01,5.164300155639648438e+01,5.207300186157226562e+01,5.020500183105468750e+01,5.071699905395507812e+01,5.070500183105468750e+01,5.038199996948242188e+01,5.073600006103515625e+01,5.511500167846679688e+01,5.253900146484375000e+01,5.008200073242187500e+01,5.037200164794921875e+01,5.036199951171875000e+01,4.791400146484375000e+01,4.789199829101562500e+01,4.781999969482421875e+01,4.909999847412109375e+01,3.028000068664550781e+01,3.010700035095214844e+01,3.186000061035156250e+01,3.190999984741210938e+01,3.185600090026855469e+01,3.185499954223632812e+01,2.926199913024902344e+01,2.937599945068359375e+01,3.553799819946289062e+01,3.509899902343750000e+01,3.344200134277343750e+01,5.406499862670898438e+01,2.962199974060058594e+01,3.603400039672851562e+01,3.109900093078613281e+01,3.631000137329101562e+01,2.972100067138671875e+01,3.258399963378906250e+01,3.257699966430664062e+01,2.993499946594238281e+01,2.998900032043457031e+01,3.128100013732910156e+01,3.797100067138671875e+01,4.084600067138671875e+01,4.520199966430664062e+01,4.498899841308593750e+01,4.295600128173828125e+01,5.074300003051757812e+01,5.372800064086914062e+01,5.387200164794921875e+01,5.159999847412109375e+01,4.951699829101562500e+01,4.381200027465820312e+01,3.851100158691406250e+01,3.820500183105468750e+01,3.838899993896484375e+01,3.859899902343750000e+01,4.419499969482421875e+01,4.714099884033203125e+01,4.849100112915039062e+01,4.715599822998046875e+01,4.015200042724609375e+01,3.924200057983398438e+01,4.733399963378906250e+01,4.837099838256835938e+01,4.449100112915039062e+01,4.678400039672851562e+01,4.818399810791015625e+01,4.760300064086914062e+01,4.040000152587890625e+01,4.610499954223632812e+01,4.661899948120117188e+01,5.101800155639648438e+01,5.206200027465820312e+01,5.519699859619140625e+01,5.531200027465820312e+01,5.343299865722656250e+01,5.274599838256835938e+01,5.238899993896484375e+01,5.312799835205078125e+01,5.209899902343750000e+01,4.867399978637695312e+01,4.002500152587890625e+01,4.495000076293945312e+01,5.981000137329101562e+01,5.982600021362304688e+01,5.987900161743164062e+01,5.976300048828125000e+01,5.979600143432617188e+01,5.981399917602539062e+01,5.982600021362304688e+01,5.982699966430664062e+01,5.994100189208984375e+01,5.974900054931640625e+01,4.608399963378906250e+01,4.611999893188476562e+01,4.138000106811523438e+01,3.956100082397460938e+01,3.918999862670898438e+01,3.887300109863281250e+01,3.854299926757812500e+01,4.602199935913085938e+01,4.869100189208984375e+01,4.513499832153320312e+01
4.999599838256835938e+01,5.015599822998046875e+01,5.028200149536132812e+01,5.052600097656250000e+01,5.000500106811523438e+01,4.994499969482421875e+01,5.091099929809570312e+01,5.159999847412109375e+01,5.183900070190429688e+01,5.144599914550781250e+01,5.085800170898437500e+01,5.092599868774414062e+01,5.282099914550781250e+01,5.460900115966796875e+01,5.470600128173828125e+01,5.490200042724609375e+01,5.498400115966796875e+01,5.494400024414062500e+01,5.505099868774414062e+01,5.177199935913085938e+01,5.211500167846679688e+01,4.931399917602539062e+01,5.039799880981445312e+01,5.092800140380859375e+01,5.035300064086914062e+01,5.146500015258789062e+01,5.281900024414062500e+01,5.233200073242187500e+01,4.951599884033203125e+01,5.044699859619140625e+01,5.045500183105468750e+01,5.044599914550781250e+01,5.039699935913085938e+01,5.038700103759765625e+01,4.913299942016601562e+01,3.040099906921386719e+01,2.907900047302246094e+01,3.186300086975097656e+01,4.884299850463867188e+01,3.186800003051757812e+01,3.187400054931640625e+01,3.184900093078613281e+01,5.209199905395507812e+01,5.203300094604492188e+01,5.535599899291992188e+01,5.538999938964843750e+01,5.669800186157226562e+01,5.669699859619140625e+01,3.563299942016601562e+01,3.117000007629394531e+01,3.690000152587890625e+01,3.284000015258789062e+01,3.338199996948242188e+01,3.260200119018554688e+01,3.049300003051757812e+01,3.000000000000000000e+01,3.336000061035156250e+01,3.755699920654296875e+01,4.183100128173828125e+01,4.533000183105468750e+01,4.444300079345703125e+01,4.744800186157226562e+01,5.092699813842773438e+01,5.452500152587890625e+01,5.162900161743164062e+01,5.109299850463867188e+01,4.803099822998046875e+01,3.932899856567382812e+01,4.020500183105468750e+01,3.928799819946289062e+01,3.852500152587890625e+01,3.857500076293945312e+01,4.334500122070312500e+01,4.521799850463867188e+01,4.923600006103515625e+01,4.857500076293945312e+01,4.406900024414062500e+01,4.501200103759765625e+01,4.800699996948242188e+01,4.822200012207031250e+01,4.635300064086914062e+01,4.291799926757812500e+01,4.577000045776367188e+01,4.884500122070312500e+01,5.043799972534179688e+01,4.765200042724609375e+01,4.572900009155273438e+01,5.107099914550781250e+01,5.431900024414062500e+01,5.297600173950195312e+01,5.347000122070312500e+01,5.212300109863281250e+01,4.802799987792968750e+01,4.621200180053710938e+01,4.887799835205078125e+01,4.728900146484375000e+01,4.054800033569335938e+01,4.038600158691406250e+01,4.121799850463867188e+01,5.996699905395507812e+01,5.856700134277343750e+01,5.970600128173828125e+01,5.984500122070312500e+01,5.978900146484375000e+01,5.981700134277343750e+01,5.985200119018554688e+01,5.983399963378906250e+01,5.984500122070312500e+01,5.984099960327148438e+01,4.588499832153320312e+01,4.610900115966796875e+01,4.062699890136718750e+01,3.964099884033203125e+01,3.935100173950195312e+01,3.910200119018554688e+01,3.899100112915039062e+01,4.517900085449218750e+01,4.873799896240234375e+01,4.678300094604492188e+01
4.993199920654296875e+01,4.997100067138671875e+01,4.997200012207031250e+01,4.996900177001953125e+01,4.997299957275390625e+01,4.995100021362304688e+01,4.995600128173828125e+01,5.003699874877929688e+01,5.182500076293945312e+01,5.137599945068359375e+01,5.070399856567382812e+01,4.818899917602539062e+01,4.818999862670898438e+01,4.814899826049804688e+01,4.590900039672851562e+01,4.574800109863281250e+01,5.434999847412109375e+01,5.487599945068359375e+01,5.488800048828125000e+01,5.180500030517578125e+01,5.207899856567382812e+01,4.897499847412109375e+01,4.896400070190429688e+01,4.787400054931640625e+01,4.777899932861328125e+01,5.147900009155273438e+01,5.321900177001953125e+01,5.264799880981445312e+01,4.911399841308593750e+01,5.291699981689453125e+01,5.255099868774414062e+01,5.039199829101562500e+01,5.034500122070312500e+01,5.077399826049804688e+01,4.913999938964843750e+01,2.979700088500976562e+01,2.982399940490722656e+01,3.022599983215332031e+01,4.893999862670898438e+01,4.886299896240234375e+01,4.898099899291992188e+01,5.206299972534179688e+01,5.205400085449218750e+01,5.201599884033203125e+01,5.535800170898437500e+01,5.523799896240234375e+01,5.675500106811523438e+01,5.874700164794921875e+01,5.670500183105468750e+01,5.667699813842773438e+01,5.534999847412109375e+01,2.993300056457519531e+01,2.999799919128417969e+01,2.991300010681152344e+01,2.993700027465820312e+01,3.052400016784667969e+01,3.726499938964843750e+01,3.860900115966796875e+01,4.599900054931640625e+01,4.549700164794921875e+01,4.651399993896484375e+01,4.726800155639648438e+01,5.394100189208984375e+01,5.367499923706054688e+01,5.456600189208984375e+01,5.452700042724609375e+01,5.456600189208984375e+01,5.127600097656250000e+01,4.870399856567382812e+01,4.072800064086914062e+01,4.365599822998046875e+01,4.510499954223632812e+01,3.587799835205078125e+01,4.261500167846679688e+01,4.565599822998046875e+01,4.486600112915039062e+01,4.360699844360351562e+01,4.460900115966796875e+01,4.789400100708007812e+01,4.822100067138671875e+01,4.565599822998046875e+01,3.986999893188476562e+01,5.068600082397460938e+01,5.162799835205078125e+01,5.182099914550781250e+01,5.045999908447265625e+01,4.160599899291992188e+01,4.804700088500976562e+01,5.433100128173828125e+01,5.179999923706054688e+01,4.689400100708007812e+01,4.310100173950195312e+01,4.293299865722656250e+01,4.233800125122070312e+01,4.192900085449218750e+01,4.206399917602539062e+01,4.249300003051757812e+01,4.300500106811523438e+01,4.128200149536132812e+01,5.981800079345703125e+01,5.986299896240234375e+01,5.989899826049804688e+01,5.985599899291992188e+01,5.952999877929687500e+01,5.991099929809570312e+01,5.952099990844726562e+01,5.953599929809570312e+01,5.960800170898437500e+01,5.981999969482421875e+01,4.605899810791015625e+01,4.610200119018554688e+01,4.361600112915039062e+01,3.972800064086914062e+01,3.947399902343750000e+01,4.688399887084960938e+01,4.690599822998046875e+01,4.449100112915039062e+01,4.775699996948242188e+01,4.565100097656250000e+01
4.262699890136718750e+01,4.282600021362304688e+01,4.281299972534179688e+01,4.989899826049804688e+01,4.990999984741210938e+01,4.746599960327148438e+01,4.746799850463867188e+01,4.786800003051757812e+01,4.787300109863281250e+01,4.991899871826171875e+01,4.994900131225585938e+01,4.632500076293945312e+01,4.807099914550781250e+01,4.707199859619140625e+01,4.596900177001953125e+01,4.667399978637695312e+01,4.667699813842773438e+01,4.596900177001953125e+01,4.908900070190429688e+01,5.138700103759765625e+01,5.137200164794921875e+01,4.827600097656250000e+01,4.889799880981445312e+01,4.892100143432617188e+01,4.894400024414062500e+01,5.279499816894531250e+01,5.319599914550781250e+01,5.067200088500976562e+01,4.800999832153320312e+01,5.255599975585937500e+01,5.249000167846679688e+01,5.038499832153320312e+01,5.273899841308593750e+01,5.061899948120117188e+01,4.930699920654296875e+01,2.981699943542480469e+01,3.019199943542480469e+01,2.914299964904785156e+01,4.895500183105468750e+01,4.766299819946289062e+01,4.753499984741210938e+01,5.208499908447265625e+01,5.204499816894531250e+01,4.886999893188476562e+01,5.536500167846679688e+01,5.387200164794921875e+01,5.376900100708007812e+01,5.465700149536132812e+01,5.357099914550781250e+01,5.349599838256835938e+01,5.535800170898437500e+01,5.535499954223632812e+01,4.144900131225585938e+01,3.333800125122070312e+01,2.994199943542480469e+01,3.124600028991699219e+01,3.884799957275390625e+01,4.420999908447265625e+01,4.685900115966796875e+01,4.756100082397460938e+01,4.700799942016601562e+01,4.435200119018554688e+01,5.135300064086914062e+01,5.383100128173828125e+01,5.632899856567382812e+01,5.884500122070312500e+01,5.849900054931640625e+01,5.471900177001953125e+01,5.118399810791015625e+01,4.336500167846679688e+01,4.013199996948242188e+01,3.808100128173828125e+01,3.626599884033203125e+01,3.651800155639648438e+01,3.720500183105468750e+01,4.030599975585937500e+01,3.802999877929687500e+01,3.842900085449218750e+01,4.268299865722656250e+01,4.265000152587890625e+01,4.038199996948242188e+01,4.121699905395507812e+01,5.070800018310546875e+01,5.195800018310546875e+01,5.012599945068359375e+01,4.475999832153320312e+01,4.281100082397460938e+01,4.304600143432617188e+01,5.011800003051757812e+01,4.495199966430664062e+01,4.353499984741210938e+01,4.348400115966796875e+01,4.369400024414062500e+01,4.369400024414062500e+01,4.330199813842773438e+01,4.333300018310546875e+01,4.338000106811523438e+01,4.888800048828125000e+01,4.722700119018554688e+01,5.454800033569335938e+01,5.662699890136718750e+01,5.496300125122070312e+01,5.987799835205078125e+01,5.947100067138671875e+01,5.988899993896484375e+01,5.964300155639648438e+01,6.004499816894531250e+01,5.952099990844726562e+01,5.985499954223632812e+01,5.978699874877929688e+01,4.371400070190429688e+01,4.630300140380859375e+01,4.028900146484375000e+01,3.957400131225585938e+01,4.242499923706054688e+01,4.563800048828125000e+01,4.147900009155273438e+01,4.049700164794921875e+01,3.959999847412109375e+01
